276.639         246.416         2418.57          0.20889         0.643899        -0.736043       
291.483         246.121         2415.68          -0.0808148      -0.415386       -0.906048       
387.211         310.774         3050.24          -0.433986       -0.323506       -0.840833       
316.877         242.332         2378.49          -0.350121       0.0708149       -0.934024       
331.134         241.833         2373.59          -0.289058       0.124253        -0.949214       
444.579         310.694         3049.46          0.134639        -0.933272       -0.332979       
463.734         310.694         3049.46          -0.00169513     -0.962889       -0.269893       
482.861         310.676         3049.29          -0.00330441     -0.963343       -0.268254       
501.988         310.659         3049.12          -0.00869155     -0.962045       -0.272751       
521.017         310.585         3048.39          -0.00395922     -0.961668       -0.274189       
540.222         310.618         3048.71          -0.0186041      -0.963128       -0.268399       
558.962         310.389         3046.47          -0.0233565      -0.96498        -0.261283       
578.057         310.367         3046.25          0.0442579       -0.963152       -0.26529        
598.182         310.882         3051.3           0.00928372      -0.965137       -0.26158        
616.547         310.478         3047.34          -0.0577337      -0.967023       -0.24806        
1288.65         629.393         6177.48          -0.744323       0.666325        0.0446476       
544.328         258.084         2533.1           -0.478741       0.519714        -0.707605       
558.049         257.076         2523.2           -0.420233       0.501906        -0.755973       
572.322         256.369         2516.26          -0.519711       0.373355        -0.768444       
553.073         241.089         2366.28          -0.581118       0.215727        -0.784706       
566.057         240.29          2358.45          -0.155349       -0.087126       -0.98401        
581.893         240.713         2362.6           -0.243379       0.202396        -0.948579       
585.845         236.321         2319.49          -0.402376       0.378498        -0.833566       
600.004         236.159         2317.9           0.12906         -0.00859568     -0.9916         
624.981         240.162         2357.19          -0.062901       -0.0800903      -0.994801       
635.157         238.423         2340.12          -0.787751       0.504667        -0.353213       
640.157         234.865         2305.2           -0.790689       0.528067        -0.309768       
649.266         232.938         2286.28          -0.77767        0.425366        -0.462918       
658.927         231.288         2270.09          -0.443846       -0.0795653      -0.892564       
687.594         236.238         2318.67          0.827199        0.288341        -0.482288       
725.831         244.202         2396.84          0.902078        -0.135358       -0.409797       
942.835         310.766         3050.16          0.0337948       -0.962716       -0.268396       
961.325         310.55          3048.04          -0.0188781      -0.965223       -0.260744       
980.518         310.564         3048.19          -0.114967       -0.96298        -0.243828       
720.68          223.892         2197.5           -0.797594       0.592545        -0.112848       
723.7           220.605         2165.24          -0.728848       0.541024        -0.41961        
733.51          219.471         2154.11          -0.53754        0.205573        -0.817796       
745.444         219.002         2149.5           -0.136336       0.0892026       -0.986638       
759.524         219.168         2151.14          0.194853        -0.0795157      -0.977604       
774.616         219.616         2155.53          0.289405        -0.271466       -0.917906       
1113.87         310.374         3046.32          0.0355228       -0.971053       -0.236209       
1131.89         310.069         3043.32          -0.0279447      -0.968713       -0.246606       
1151.01         310.069         3043.32          0.00268739      -0.965564       -0.260153       
1170.23         310.098         3043.61          0.00159389      -0.965643       -0.259866       
1189.31         310.086         3043.5           -0.000361971    -0.966389       -0.257082       
1208.45         310.094         3043.57          -0.00237393     -0.96688        -0.255219       
1227.44         310.06          3043.24          -0.00609917     -0.966918       -0.255016       
1246.42         310.027         3042.91          0.0201147       -0.963752       -0.26604        
1266.58         310.283         3045.42          0.0378425       -0.961162       -0.273379       
1286.37         310.442         3046.99          0.0292834       -0.961707       -0.272512       
-905.964        319.741         2956.01          0.0374206       -0.970005       -0.240186       
-887.981        319.952         2957.96          0.0134372       -0.968622       -0.248174       
-869.236        319.891         2957.4           0.012957        -0.96818        -0.249919       
-851.205        320.097         2959.3           0.0396706       -0.969772       -0.240766       
-833.244        320.338         2961.53          0.0382204       -0.96779        -0.24884        
-815.101        320.519         2963.2           0.0324296       -0.968436       -0.247142       
-796.938        320.7           2964.88          0.0329824       -0.967829       -0.249439       
-778.762        320.885         2966.58          0.013426        -0.967952       -0.250775       
-760.045        320.85          2966.26          0.0211837       -0.967228       -0.253023       
-742.035        321.12          2968.75          0.0403765       -0.969543       -0.241569       
-723.809        321.307         2970.49          0.0282843       -0.968245       -0.248398       
-705.434        321.437         2971.69          -0.0015382      -0.970993       -0.239101       
-686.45         321.288         2970.31          0.0125792       -0.967867       -0.251148       
-668.392        321.577         2972.98          0.038349        -0.966939       -0.252106       
-649.99         321.712         2974.23          0.0229646       -0.967587       -0.251492       
-631.547        321.834         2975.36          0.0460269       -0.966762       -0.251499       
-613.594        322.221         2978.94          0.0176179       -0.961971       -0.272583       
-594.507        322.018         2977.06          -0.0293839      -0.960887       -0.275378       
-575.6          321.903         2975.99          -0.00351251     -0.958907       -0.2837         
-557.042        321.981         2976.72          0.0539456       -0.963501       -0.262212       
-539.183        322.483         2981.36          0.109085        -0.96059        -0.25567        
-1078.4         668.197         6177.48          -0.729031       0.634894        -0.25578        
-441.986        284.085         2626.37          -0.129352       0.30901         -0.942221       
-425.115        283.835         2624.06          -0.00829444     0.116304        -0.993179       
-408.92         284.036         2625.91          0.20466         -0.0714455      -0.976222       
-393.148        284.559         2630.75          0.256192        -0.210686       -0.943386       
-377.138        284.948         2634.35          0.154674        -0.223431       -0.962369       
-360.792        285.107         2635.82          0.27095         -0.32934        -0.904501       
-345.296        285.986         2643.94          0.264317        -0.523243       -0.810156       
-328.927        286.194         2645.87          0.123102        -0.684596       -0.718453       
-312.679        286.535         2649.02          -0.0099601      -0.627946       -0.778193       
-295.613        286.122         2645.2           -0.224277       0.00498763      -0.974513       
-278.571        285.685         2641.16          -0.148197       -0.500409       -0.853012       
-261.825        285.516         2639.6           -0.340371       -0.245355       -0.907716       
-243.981        284.045         2626             -0.228947       -0.183293       -0.956027       
-227.589        284.175         2627.2           -0.217963       -0.767609       -0.602718       
-209.849        282.509         2611.8           -0.642467       -0.45453        -0.616959       
-192.016        280.425         2592.53          -0.593222       -0.311971       -0.742133       
-175.075        279.379         2582.87          -0.595195       -0.172678       -0.784809       
-157.789        277.511         2565.59          -0.609761       -0.128791       -0.782052       
-141.11         276.409         2555.4           -0.424434       0.175058        -0.888375       
-124.749        275.725         2549.08          -0.00921245     0.280888        -0.959696       
-108.971        276.319         2554.57          0.360845        0.543267        -0.758058       
-93.3338        277.537         2565.83          0.312923        0.932004        -0.182885       
-90.2568        324.407         2999.15          0.953171        0.300356        -0.0353775      
-147.102        668.197         6177.48          0.999917        0.00223038      0.0126944       
-108.298        668.197         6177.48          -0.998658       0.0421021       -0.0301496      
-27.4158        263.609         2437.07          -0.227048       0.497199        -0.837402       
-12.086         263.147         2432.8           -0.182003       0.214772        -0.959556       
3.19343         262.957         2431.04          -0.084268       0.0333094       -0.995886       
18.4577         262.866         2430.2           -0.280616       0.766508        -0.577684       
32.3818         252.41          2333.54          -0.436784       0.296281        -0.849375       
46.9481         251.917         2328.98          0.132628        0.383039        -0.914161       
62.2695         254.748         2355.14          0.860307        0.287046        -0.42128        
79.7459         263.615         2437.12          0.981954        -0.0221328      -0.187822       
117.017         324.522         3000.2           -0.125346       -0.117788       -0.985096       
109.892         262.487         2426.7           -0.267439       0.142591        -0.952966       
124.95          262.1           2423.11          -0.457031       0.296356        -0.838627       
136.365         254.983         2357.32          0.0195758       0.831686        -0.554901       
154.878         261.233         2415.1           -0.16527        0.689791        -0.704893       
168.962         259.564         2399.67          -0.293222       0.766987        -0.570746       
183.778         259.2           2396.3           0.0871496       0.662897        -0.743621       
199.536         260.12          2404.81          0.0938233       0.469516        -0.877925       
214.334         259.747         2401.36          -0.205524       0.440245        -0.874039       
229.047         259.326         2397.47          0.136627        0.494536        -0.858351       
247.79          263.24          2433.65          0.392624        -0.289027       -0.873103       
262.45          262.612         2427.85          -0.180387       -0.424896       -0.887087       
277.697         262.608         2427.81          -0.500833       -0.0952007      -0.860292       
288.707         258.807         2392.68          -0.678309       -0.456939       -0.575416       
302.582         257.823         2383.58          -0.358808       0.328895        -0.873547       
317.082         257.439         2380.03          -0.198849       0.136549        -0.970471       
418.456         324.448         2999.52          0.153192        -0.932554       -0.326917       
437.346         324.483         2999.85          0.015941        -0.963425       -0.267504       
456.387         324.624         3001.15          0.00347487      -0.963555       -0.267486       
475.09          324.522         3000.21          -0.015455       -0.963153       -0.268511       
493.835         324.456         2999.6           0.00281865      -0.964335       -0.264671       
512.832         324.554         3000.5           -0.0149827      -0.963946       -0.265674       
531.252         324.293         2998.09          -0.0213106      -0.964167       -0.264438       
550.132         324.321         2998.35          -0.00715266     -0.961654       -0.274172       
568.783         324.216         2997.38          -0.0148543      -0.962338       -0.27145        
587.511         324.161         2996.87          -0.00300245     -0.967242       -0.253838       
606.376         324.182         2997.07          -3.64718e-05    -0.965115       -0.261827       
625.16          324.16          2996.86          -0.109839       -0.963355       -0.244709       
546.804         275.243         2544.62          -0.614363       0.476535        -0.628867       
559.962         273.861         2531.84          -0.594294       0.408438        -0.692815       
573.25          272.616         2520.34          -0.682455       0.308348        -0.662704       
555.694         257.165         2377.49          -0.68881        0.568989        -0.449213       
567.161         255.602         2363.05          -0.491023       0.369357        -0.788968       
580.905         255.12          2358.58          -0.607057       0.0261293       -0.794229       
587.805         251.73          2327.24          -0.592009       0.558656        -0.580887       
600.496         250.924         2319.8           -0.100147       0.184606        -0.977697       
617.023         251.722         2327.17          0.51196         -0.450951       -0.731122       
637.372         254.006         2348.28          -0.330465       0.047668        -0.942614       
647.096         252.048         2330.18          -0.797602       0.499217        -0.338545       
652.311         248.459         2297.01          -0.783638       0.532949        -0.319182       
661.384         246.463         2278.55          -0.581058       0.504451        -0.638672       
695.303         253.614         2344.67          0.769584        0.0534047       -0.636308       
715.053         255.408         2361.25          0.508119        -0.711365       -0.485567       
926.475         324.201         2997.24          0.0764529       -0.96116        -0.265191       
945.32          324.207         2997.3           -0.0311038      -0.967875       -0.2495         
963.1           323.855         2994.04          -0.0145236      -0.977244       -0.211622       
982.426         324.026         2995.62          -0.961725       -0.0122381      0.273744        
729.177         235.979         2181.63          -0.80684        0.548915        -0.218409       
734.546         233.331         2157.15          -0.635926       0.389958        -0.665981       
746.184         232.735         2151.63          -0.282133       0.203003        -0.937652       
758.997         232.519         2149.64          0.0199664       0.0622521       -0.997861       
773.682         232.875         2152.93          0.360314        -0.0807262      -0.929331       
791.372         234.108         2164.33          0.553212        -0.235857       -0.798954       
1113.8          323.925         2994.69          0.0394936       -0.960035       -0.277079       
1132.35         323.849         2993.99          -0.0119713      -0.966277       -0.257226       
1150.95         323.792         2993.46          -0.0164317      -0.967531       -0.252217       
1169.3          323.665         2992.29          -0.0163399      -0.964288       -0.264353       
1187.91         323.615         2991.82          -0.00161327     -0.965895       -0.25893        
1206.82         323.648         2992.12          0.0107429       -0.962726       -0.270265       
1225.94         323.733         2992.92          0.00357778      -0.964001       -0.265875       
1244.56         323.687         2992.49          -0.00221288     -0.968256       -0.249951       
1263.44         323.708         2992.68          0.00356349      -0.968421       -0.249294       
-890.951        332.703         2907.02          0.0319818       -0.968499       -0.246955       
-873.168        332.885         2908.61          0.0142977       -0.967974       -0.250642       
-854.848        332.866         2908.45          0.015516        -0.968438       -0.248772       
-837.074        333.063         2910.17          0.044755        -0.969257       -0.241945       
-819.569        333.378         2912.92          0.0427428       -0.969096       -0.242954       
-801.688        333.552         2914.44          0.0293152       -0.967766       -0.250141       
-783.755        333.711         2915.83          0.031052        -0.970175       -0.24041        
-765.904        333.914         2917.6           0.0342629       -0.969044       -0.244499       
-748.006        334.106         2919.28          0.0170774       -0.969059       -0.246236       
-729.682        334.112         2919.33          0.0232275       -0.967625       -0.251321       
-711.895        334.371         2921.59          0.0254065       -0.968769       -0.24666        
-693.613        334.404         2921.89          0.0105893       -0.967935       -0.250978       
-675.438        334.493         2922.66          0.0367208       -0.96524        -0.258773       
-657.708        334.813         2925.46          0.0328365       -0.966173       -0.255796       
-639.424        334.861         2925.88          0.0294329       -0.966002       -0.256852       
-621.57         335.144         2928.35          0.0399503       -0.966438       -0.253775       
-603.477        335.312         2929.82          0.0275229       -0.969522       -0.243454       
-585.342        335.466         2931.17          0.0172657       -0.967561       -0.252049       
-567.005        335.511         2931.56          0.020647        -0.963066       -0.268473       
-548.89         335.694         2933.16          0.0505593       -0.962427       -0.266793       
-531.048        336.063         2936.38          2.06461e-05     -0.964433       -0.264327       
-512.033        335.689         2933.12          -0.208541       -0.935987       -0.283619       
-443.639        301.706         2636.18          -0.412315       0.485824        -0.770695       
-425.764        300.777         2628.06          -0.229395       0.339059        -0.912369       
-408.984        300.577         2626.32          -0.0341944      0.0915807       -0.99521        
-392.566        300.638         2626.85          0.112424        -0.126505       -0.985575       
-376.51         300.994         2629.96          0.203915        -0.259989       -0.943835       
-360.485        301.407         2633.57          0.0925479       -0.285673       -0.953848       
-343.864        301.339         2632.97          -0.0219925      -0.436713       -0.899332       
-327.303        301.319         2632.8           0.133459        -0.431157       -0.892352       
-311.334        301.871         2637.63          0.121977        -0.570306       -0.812325       
-294.736        301.84          2637.36          -0.126564       -0.524111       -0.842193       
-277.676        301.305         2632.68          -0.20849        -0.518063       -0.829543       
-260.81         300.926         2629.37          -0.226681       -0.567083       -0.791854       
-243.76         300.269         2623.63          -0.451071       -0.329302       -0.829515       
-226.076        298.678         2609.73          -0.521825       -0.440525       -0.730505       
-208.894        297.555         2599.92          -0.457268       -0.422903       -0.782342       
-191.895        296.523         2590.9           -0.557652       -0.229473       -0.797726       
-174.587        294.78          2575.66          -0.587797       -0.198966       -0.78416        
-157.774        293.599         2565.35          -0.424732       0.0763153       -0.902097       
-141.329        292.915         2559.37          -0.279477       0.199915        -0.93911        
-125.053        292.449         2555.3           0.115595        0.485156        -0.866754       
-109.404        293.529         2564.73          0.438953        0.581307        -0.685129       
-107.302        337.601         2949.82          0.216567        -0.918976       -0.329517       
-88.7377        337.469         2948.67          -0.0530253      -0.966189       -0.252322       
-70.1133        336.978         2944.38          -0.0210421      -0.957881       -0.286394       
-51.6582        337.24          2946.67          -0.0136586      -0.972075       -0.234272       
-33.1062        336.81          2942.91          -0.0475721      -0.95319        -0.298607       
-30.6894        707.001         6177.48          0.99997         0.00489104      -0.00603873     
8.11477         707.001         6177.48          -0.0231052      0.0235021       -0.999457       
19.1611         288.731         2522.81          -0.670072       0.717743        -0.189336       
33.8113         278.859         2436.55          -0.307692       0.919216        -0.245699       
49.0459         278.457         2433.05          -0.0451028      0.955424        -0.291773       
64.2232         277.998         2429.04          -0.0312375      0.962195        -0.270565       
79.4188         277.78          2427.13          -0.109197       -0.547674       -0.829535       
94.5945         277.573         2425.32          -0.0412984      0.882048        -0.469346       
109.757         277.39          2423.72          -0.0730484      0.0328038       -0.996789       
124.949         277.317         2423.08          -0.00557735     0.0287544       -0.999571       
140.197         277.371         2423.56          0.0224705       0.0010748       -0.999747       
155.434         277.396         2423.77          0.0255407       0.00271168      -0.99967        
170.699         277.461         2424.34          0.375999        -0.0341577      -0.92599        
190.111         283.703         2478.88          0.753403        -0.301979       -0.584117       
205.541         283.508         2477.18          -0.458377       -0.323978       -0.827604       
219.836         281.886         2463             -0.628413       -0.28276        -0.724668       
234.366         280.758         2453.15          -0.870219       -0.151713       -0.468724       
245.271         275.694         2408.9           -0.640336       -0.576033       -0.508091       
259.393         274.625         2399.56          -0.454809       -0.424158       -0.783096       
273.731         273.89          2393.14          -0.352621       -0.110293       -0.929244       
288.229         273.383         2388.71          -0.117459       -0.235284       -0.964803       
303.35          273.488         2389.62          0.093156        0.389449        -0.916325       
392.933         337.55          2949.37          0.171166        -0.929876       -0.325628       
411.541         337.616         2949.95          0.0176298       -0.966484       -0.256119       
430.248         337.755         2951.17          0.0157327       -0.966378       -0.256643       
448.844         337.799         2951.55          0.013239        -0.965354       -0.260606       
467.535         337.907         2952.5           -0.010449       -0.965895       -0.258725       
485.754         337.68          2950.51          -0.0171889      -0.966756       -0.255124       
504.332         337.71          2950.77          0.00514065      -0.965712       -0.259566       
522.913         337.739         2951.03          0.00253463      -0.964468       -0.264189       
541.449         337.738         2951.02          -0.00611459     -0.963151       -0.268893       
559.874         337.671         2950.43          -0.0196955      -0.960591       -0.277268       
578.157         337.525         2949.15          -0.0242523      -0.962418       -0.270488       
596.469         337.404         2948.1           0.0113629       -0.962366       -0.271518       
615.442         337.654         2950.28          -0.0723052      -0.963448       -0.257953       
548.953         292.371         2554.62          -0.673066       0.48373         -0.559453       
561.734         290.681         2539.85          -0.607958       0.397179        -0.687485       
575.269         289.464         2529.22          -0.412051       0.425374        -0.805773       
589.948         288.872         2524.05          -0.292121       0.151417        -0.944319       
604.808         288.398         2519.9           -0.423899       0.291745        -0.857435       
597.57          277.679         2426.25          -0.782126       0.559187        -0.274934       
607.342         275.201         2404.6           -0.777649       0.570651        -0.263856       
601.434         265.911         2323.42          -0.202998       0.451766        -0.868734       
616.135         265.957         2323.82          0.279169        -0.0734973      -0.957425       
635.751         268.073         2342.31          0.100549        -0.359494       -0.927714       
649.519         267.684         2338.91          -0.525743       0.245093        -0.81457        
659.49          265.781         2322.29          -0.768387       0.53212         -0.35557        
664.532         262.017         2289.4           -0.849991       0.404096        -0.337965       
673.527         259.939         2271.24          -0.578884       0.0553798       -0.813527       
708.862         267.901         2340.81          0.835313        -0.419895       -0.354882       
910.456         337.097         2945.42          0.134806        -0.947593       -0.289646       
929.742         337.382         2947.9           -0.0185179      -0.967889       -0.250696       
727.391         258.799         2261.28          -0.960322       0.199562        0.194824        
737.886         257.504         2249.97          -0.63934        0.750669        -0.166555       
735.478         251.84          2200.48          -0.865037       0.494379        -0.0854407      
738.522         248.218         2168.82          -0.781861       0.509115        -0.359854       
747.334         246.63          2154.95          -0.470165       0.302176        -0.829237       
760.239         246.425         2153.16          -0.0771528      0.236304        -0.968611       
773.647         246.388         2152.83          0.162552        0.088556        -0.982718       
789.741         247.193         2159.87          0.41583         -0.132783       -0.899697       
1095.19         337.01          2944.65          0.0799523       -0.965673       -0.247149       
1113.47         336.945         2944.09          -0.0119908      -0.968903       -0.247148       
1131.71         336.87          2943.43          0.0223079       -0.964162       -0.264376       
1151.35         337.207         2946.38          0.00158468      -0.965564       -0.26016        
1168.78         336.895         2943.65          -0.0126865      -0.964062       -0.265376       
1187.89         337.07          2945.18          0.00915467      -0.963696       -0.266846       
1206.14         337             2944.57          -0.0227951      -0.967985       -0.249973       
1223.94         336.809         2942.9           -0.0124957      -0.966589       -0.256027       
1242.61         336.859         2943.34          0.00867146      -0.965069       -0.261851       
-876.464        345.257         2859.76          0.0298354       -0.968883       -0.245713       
-858.934        345.431         2861.2           0.00500968      -0.967633       -0.252311       
-840.677        345.315         2860.23          0.0122025       -0.96992        -0.243117       
-823.332        345.576         2862.39          0.0448162       -0.970203       -0.238112       
-805.975        345.843         2864.61          0.0472925       -0.97257        -0.227751       
-788.678        346.149         2867.14          0.0152006       -0.969234       -0.245673       
-770.384        346.021         2866.09          0.0203624       -0.96882        -0.246928       
-753.175        346.387         2869.12          0.0144504       -0.969207       -0.245824       
-734.734        346.19          2867.48          0.0320933       -0.968713       -0.2461         
-717.905        346.761         2872.21          0.0542956       -0.968829       -0.241709       
-699.989        346.824         2872.73          0.0192297       -0.968854       -0.246886       
-682.268        346.988         2874.1           0.0380009       -0.969607       -0.241699       
-664.761        347.274         2876.46          0.0404716       -0.967319       -0.250312       
-647.033        347.457         2877.98          0.028361        -0.967998       -0.249348       
-629.225        347.606         2879.21          0.0203117       -0.967933       -0.250385       
-611.297        347.696         2879.96          0.0060116       -0.969615       -0.244562       
-593.177        347.679         2879.81          -0.00983898     -0.967867       -0.25127        
-574.921        347.578         2878.98          0.0319474       -0.968564       -0.246705       
-557.601        348.056         2882.94          0.0540555       -0.970285       -0.235851       
-539.759        348.228         2884.36          0.0289042       -0.968567       -0.247067       
-521.895        348.398         2885.77          0.022524        -0.970534       -0.239909       
-503.917        348.501         2886.62          0.000816553     -0.967956       -0.251119       
-485.654        348.407         2885.85          -0.365869       -0.832006       -0.417021       
-427.433        318.529         2638.37          -0.453623       0.499258        -0.738219       
-409.412        317.406         2629.07          -0.263662       0.365696        -0.892608       
-392.531        317.111         2626.62          -0.0956904      0.061701        -0.993497       
-375.912        317.009         2625.78          -0.0156455      -0.102263       -0.994634       
-359.461        317.047         2626.09          0.0661454       -0.282206       -0.957071       
-343.208        317.272         2627.95          0.0933754       -0.305996       -0.947443       
-326.853        317.42          2629.19          -0.00424901     -0.329194       -0.944253       
-310.17         317.248         2627.76          -0.107544       -0.49337        -0.863146       
-293.385        316.948         2625.27          -0.175264       -0.501468       -0.847238       
-276.467        316.459         2621.22          -0.220603       -0.47862        -0.849857       
-259.589        315.956         2617.06          -0.246883       -0.503678       -0.827863       
-242.663        315.323         2611.81          -0.309481       -0.513599       -0.800274       
-225.651        314.48          2604.83          -0.445875       -0.34631        -0.825388       
-208.404        313.15          2593.81          -0.535708       -0.268298       -0.800645       
-191.29         311.812         2582.73          -0.495473       -0.211648       -0.842444       
-174.492        310.79          2574.27          -0.38526        0.0396581       -0.921955       
-157.97         310.1           2568.55          -0.32406        0.162754        -0.931931       
-141.505        309.375         2562.55          0.0451778       0.419431        -0.906662       
-125.783        310.3           2570.21          0.434882        0.649584        -0.623633       
-110.457        312.62          2589.42          0.571116        0.69873         -0.430817       
-105.527        350.239         2901.02          0.130042        -0.959362       -0.250427       
-87.2744        350.121         2900.05          -0.00160984     -0.964771       -0.263085       
-69.0771        350.22          2900.87          -0.0406618      -0.959862       -0.27751        
-50.7743        349.663         2896.25          -0.0629199      -0.9617         -0.266786       
-32.5655        349.493         2894.84          0.0169544       -0.962702       -0.270032       
-14.3964        349.857         2897.86          0.078891        -0.964466       -0.252156       
8.11477         745.805         6177.48          0.024231        -0.02429        -0.999411       
46.9189         745.805         6177.48          -0.99967        0.025401        -0.00384404     
35.0923         305.309         2528.87          -0.800765       0.341963        -0.491768       
50.4377         302.076         2502.09          -0.122989       0.864506        -0.487343       
68.6485         313.463         2596.41          0.918129        0.348309        -0.188999       
94.9535         350.343         2901.88          0.219501        -0.906276       -0.361224       
113.19          350.367         2902.08          -0.184301       -0.932999       -0.309105       
109.963         293.165         2428.28          -0.296123       0.31339         -0.902274       
124.996         292.648         2424             -0.248119       0.0930649       -0.964249       
140.017         292.22          2420.45          -0.215498       -0.168516       -0.961854       
155.026         291.853         2417.41          -0.179109       -0.368428       -0.912239       
170.029         291.541         2414.83          -0.141424       -0.529586       -0.836384       
185.035         291.283         2412.69          -0.0422883      -0.987062       -0.154659       
199.983         290.983         2410.2           -0.0500149      -0.986993       -0.152786       
214.856         290.621         2407.21          -0.0656151      -0.979333       -0.191315       
229.662         290.223         2403.91          -0.0793567      -0.971905       -0.221593       
244.394         289.786         2400.29          -0.186117       -0.492009       -0.850463       
259.208         289.492         2397.86          -0.0638783      -0.0826419      -0.99453        
274.334         289.559         2398.41          0.0777794       0.354984        -0.931631       
350.031         350.224         2900.89          0.172824        -0.922579       -0.344935       
368.308         350.276         2901.33          -0.0047596      -0.953209       -0.302275       
386.42          350.174         2900.48          -0.00140039     -0.966441       -0.256884       
404.739         350.26          2901.19          0.012286        -0.964206       -0.264868       
423.031         350.316         2901.66          0.0295128       -0.965498       -0.258734       
441.629         350.611         2904.1           0.0198448       -0.964241       -0.264282       
459.789         350.549         2903.59          -0.0174218      -0.968645       -0.247837       
477.829         350.402         2902.37          -0.00136057     -0.966186       -0.257843       
496.246         350.533         2903.46          0.000869187     -0.965221       -0.261432       
514.307         350.413         2902.46          0.0100142       -0.965129       -0.261584       
532.902         350.652         2904.44          0.0387796       -0.961935       -0.270511       
551.479         350.863         2906.19          -0.00241447     -0.96448        -0.264146       
569.348         350.626         2904.22          -0.0352391      -0.963412       -0.265697       
587.32          350.464         2902.88          -0.00559641     -0.961758       -0.273845       
605.727         350.563         2903.71          -0.0156275      -0.965427       -0.260205       
623.469         350.284         2901.39          -0.294058       -0.906265       -0.303668       
563.573         307.639         2548.17          -0.616003       0.414845        -0.669659       
576.88          306.207         2536.3           -0.598015       0.343029        -0.724368       
590.146         304.829         2524.89          -0.395611       0.209514        -0.894201       
605.376         304.513         2522.27          -0.341462       0.111199        -0.933294       
600.63          294.419         2438.67          -0.777802       0.558689        -0.287909       
610.631         291.878         2417.62          -0.866851       0.383757        -0.318277       
605.592         282.445         2339.48          -0.901355       -0.0284917      -0.432143       
616.393         280.672         2324.8           -0.246551       0.0862254       -0.965286       
634.319         282.15          2337.04          0.327584        -0.26678        -0.906376       
649.625         282.421         2339.29          -0.176314       0.327721        -0.928177       
662.255         281.544         2332.02          -0.620881       0.53259         -0.575199       
667.649         277.695         2300.14          -0.830067       0.443013        -0.338715       
676.658         275.48          2281.8           -0.721924       0.483094        -0.495425       
686.76          273.793         2267.82          -0.80129        0.0595468       -0.595306       
1909.52         745.805         6177.48          0.638737        -0.757614       -0.134296       
914.539         350.079         2899.7           -0.0301055      -0.975604       -0.217466       
932.675         350.05          2899.45          -0.0410407      -0.957113       -0.286794       
949.793         349.647         2896.12          -0.0123478      -0.946411       -0.322727       
968.781         349.934         2898.5           -0.0537257      -0.948519       -0.312131       
742.878         263.386         2181.62          -0.798303       0.533413        -0.279612       
749.184         260.81          2160.29          -0.566739       0.442498        -0.694984       
761.328         260.323         2156.25          -0.172545       0.246298        -0.953712       
774.667         260.254         2155.67          0.0924625       0.16409         -0.982102       
789.629         260.723         2159.56          0.41736         0.0183582       -0.908556       
811.325         263.362         2181.42          0.716323        -0.249913       -0.651479       
1094.96         349.53          2895.15          0.0750197       -0.954549       -0.288459       
1113.47         349.632         2895.99          -0.000240991    -0.965777       -0.259374       
1131.33         349.528         2895.13          0.0209727       -0.964394       -0.263636       
1150.69         349.885         2898.09          0.0144207       -0.964638       -0.263182       
1168.29         349.703         2896.58          -0.0197551      -0.968286       -0.249063       
1186.31         349.653         2896.16          -0.00331974     -0.966797       -0.255525       
1204.54         349.664         2896.26          -0.00330911     -0.967987       -0.250977       
1222.56         349.613         2895.84          -0.00871705     -0.966158       -0.257802       
-862.259        357.334         2813.41          0.028103        -0.972042       -0.233121       
-844.995        357.507         2814.77          -0.0076432      -0.969027       -0.246837       
-826.692        357.238         2812.65          0.00683149      -0.970716       -0.240132       
-809.814        357.587         2815.4           0.0270797       -0.971653       -0.234856       
-792.089        357.569         2815.26          0.0393404       -0.973672       -0.224534       
-775.509        358.079         2819.27          0.0587112       -0.973652       -0.220351       
-758.271        358.301         2821.02          0.0318009       -0.969743       -0.242049       
-740.882        358.462         2822.28          0.0312488       -0.97161        -0.234514       
-723.606        358.686         2824.05          0.033793        -0.967533       -0.250476       
-706.209        358.86          2825.42          0.026886        -0.969524       -0.243515       
-688.75         359.01          2826.61          0.0136878       -0.967329       -0.253156       
-671.017        359.023         2826.7           0.0339479       -0.96852        -0.246612       
-653.977        359.416         2829.8           0.0505423       -0.970016       -0.237729       
-636.588        359.635         2831.52          0.0195761       -0.969347       -0.244914       
-618.833        359.653         2831.66          0.00175858      -0.969619       -0.244615       
-601.052        359.656         2831.69          0.0233554       -0.969715       -0.243119       
-583.72         359.937         2833.9           0.0374054       -0.969048       -0.244021       
-566.186        360.107         2835.24          0.0103155       -0.967304       -0.25341        
-548.305        360.06          2834.87          0.0287191       -0.971762       -0.23421        
-531.094        360.465         2838.06          0.040585        -0.96971        -0.240863       
-513.393        360.554         2838.76          -0.00451905     -0.969346       -0.24566        
-495.362        360.409         2837.62          -0.0176252      -0.967673       -0.25159        
-477.445        360.339         2837.07          0.0325484       -0.968201       -0.248046       
-460.213        360.801         2840.7           -0.323606       -0.826292       -0.460999       
-412.035        336.061         2645.91          -0.575407       0.584948        -0.571615       
-392.891        333.915         2629.02          -0.348914       0.233616        -0.90757        
-376.032        333.61          2626.62          -0.143561       0.170619        -0.974823       
-359.167        333.27          2623.94          -0.110648       0.0292159       -0.99343        
-342.54         333.13          2622.84          -0.0719743      -0.115105       -0.990742       
-325.906        332.968         2621.56          -0.0954128      -0.224345       -0.969828       
-309.212        332.725         2619.65          -0.100545       -0.30227        -0.947905       
-292.591        332.536         2618.16          -0.150885       -0.330623       -0.931623       
-275.747        332.057         2614.39          -0.240201       -0.333825       -0.911518       
-258.855        331.455         2609.65          -0.308421       -0.319767       -0.895894       
-241.86         330.632         2603.17          -0.369544       -0.324761       -0.870613       
-224.875        329.704         2595.87          -0.389063       -0.247287       -0.8874         
-208.004        328.811         2588.83          -0.377824       -0.0983184      -0.920642       
-191.254        327.975         2582.25          -0.323751       0.0548098       -0.944553       
-174.696        327.342         2577.27          -0.299886       0.211778        -0.930171       
-158.136        326.576         2571.24          0.0804865       0.399042        -0.913393       
-142.507        327.777         2580.69          0.380152        0.701122        -0.603251       
-126.975        329.54          2594.57          0.484298        0.739989        -0.466768       
-121.809        362.683         2855.52          0.318873        -0.873615       -0.367583       
-103.868        362.669         2855.41          0.00235402      -0.964162       -0.265306       
-85.9409        362.71          2855.74          -0.00312962     -0.963029       -0.26938        
-67.9879        362.633         2855.12          -0.0201503      -0.964724       -0.262493       
-50.0311        362.472         2853.86          -0.0371033      -0.957636       -0.28558        
-32.0819        362.217         2851.85          -0.0229738      -0.956664       -0.290286       
-14.1678        362.217         2851.85          0               -0.96035        -0.278796       
3.74621         362.217         2851.85          0.0149722       -0.955488       -0.294649       
21.6701         362.381         2853.14          -0.110703       -0.960353       -0.255864       
35.1417         321.646         2532.43          -0.414938       0.267791        -0.869548       
50.9204         320.834         2526.03          -0.0590232      0.35548         -0.932818       
68.825          330.621         2603.08          0.975316        -0.132819       -0.1764         
93.5473         363.113         2858.91          0.132183        -0.96765        -0.214898       
111.341         362.578         2854.69          -0.0425077      -0.96174        -0.270646       
129.288         362.619         2855.02          0.0151741       -0.943856       -0.330008       
147.267         362.732         2855.9           0.0054318       -0.946814       -0.321736       
165.181         362.675         2855.46          0.00420898      -0.945742       -0.324891       
183.168         362.775         2856.24          0.0310451       -0.948459       -0.315374       
201.236         363.002         2858.03          0.186747        -0.93214        -0.310227       
220.351         364.927         2873.19          -0.0129096      -0.974603       -0.223568       
237.036         362.84          2856.75          -0.169079       -0.933344       -0.316671       
255.14          363.066         2858.54          0.00844292      -0.946509       -0.322566       
272.991         362.927         2857.44          -0.0150732      -0.941787       -0.335872       
290.931         362.916         2857.35          0.000579197     -0.945492       -0.325644       
308.895         362.933         2857.49          -0.00758422     -0.949653       -0.313211       
326.757         362.836         2856.73          -0.0206952      -0.950265       -0.310755       
344.587         362.716         2855.78          -0.00917508     -0.963223       -0.268547       
362.54          362.73          2855.89          -0.00881056     -0.964182       -0.265096       
380.356         362.613         2854.97          0.0120588       -0.962703       -0.270293       
398.574         362.872         2857.01          0.0116213       -0.963811       -0.266332       
416.382         362.75          2856.05          0.0144224       -0.964303       -0.264408       
434.674         363.044         2858.37          0.00276284      -0.966229       -0.25767        
452.306         362.786         2856.33          -0.0204391      -0.967407       -0.252402       
470.265         362.798         2856.43          0.0130319       -0.965471       -0.260185       
488.401         362.942         2857.56          0.00949797      -0.965637       -0.259722       
506.309         362.912         2857.32          0.0104994       -0.964043       -0.265538       
524.481         363.066         2858.54          0.00309039      -0.965627       -0.259911       
542.262         362.95          2857.62          0.00233412      -0.96647        -0.256768       
560.437         363.095         2858.77          0.00842879      -0.965461       -0.260412       
578.324         363.051         2858.42          -0.0123374      -0.966158       -0.257656       
596.111         362.948         2857.61          -0.0116129      -0.966044       -0.258116       
614             362.912         2857.33          -0.149417       -0.960928       -0.233005       
565.627         324.825         2557.45          -0.690101       0.472065        -0.548558       
578.307         322.935         2542.58          -0.627875       0.357885        -0.691153       
591.719         321.545         2531.63          -0.519163       0.325598        -0.790225       
605.656         320.505         2523.44          -0.632237       0.0959286       -0.768814       
