0.686245        0.686367        0.686446        0.686176        0.686164        0.686011        0.687097        0.685317        0.685401        0.686665        0.686828        0.686992        0.686093        0.686089        0.686174        0.685801        0.686343        0.685843        0.686119        0.68572         0.685658        0.685279        0.685138        0.685062        0.684856        0.684639        0.683141        0.684319        0.68413         0.684513        0.684482        0.683412        0.684418        0.683524        0.683989        0.684049        0.684108        0.683748        0.684067        0.68386         0.683967        0.683915        0.683908        0.684068        0.68404         0.683972        0.683986        0.684           0.683921        0.683778        0.683924        0.683681        0.683976        0.683813        0.683945        0.683957        0.683839        0.683676        0.683672        0.683607        0.684175        0.683581        0.682956        0.683158        0.68351         0.683336        0.683275        0.684748        0.683152        0.683843        0.684159        0.684097        0.685152        0.683228        0.683075        0.682921        0.682767        0.68332         0.683916        0.683365        0.683865        0.683968        0.68413         0.684392        0.684477        0.684255        0.68389         0.685389        0.68447         0.684959        0.685135        0.685311        0.683879        0.685425        0.684214        0.684321        0.685774        0.685556        0.685768        0.685854        0.685655        0.686196        0.685981        0.686516        0.686219        0.686363        0.686405        0.686815        0.686488        0.686535        0.686577        0.687162        0.687241        0.686639        0.686666        0.686919        0.686718        0.68675         0.686732        0.686805        0.686627        0.686413        0.685426        0.685307        0.68616         0.686188        0.684248        0.686075        0.686019        0.686418        0.708035        0.686534        0.711797        0.713678        0.715182        0.675801        0.719195        0.721202        0.723082        0.687734        0.726844        0.729227        0.739826        0.73324         0.735246        0.735892        0.737559        0.739225        0.740891        0.743763        0.747069        0.746406        0.749666        0.751276        0.753154        0.755033        0.755851        0.757834        0.757788        0.761113        0.762752        0.765766        0.767749        0.769732        0.774054        0.776404        0.776924        0.781722        0.784382        0.785803        0.788153        0.795884        0.798474        0.797643        0.80456         0.803562        0.806522        0.815189        0.818898        0.821888        0.823651        0.829361        0.832904        0.836446        0.839629        0.844305
0.690521        0.690099        0.690447        0.689979        0.690421        0.690175        0.691432        0.689997        0.689908        0.691           0.689759        0.690363        0.69149         0.690534        0.690673        0.690525        0.69061         0.690377        0.690374        0.690371        0.690066        0.689716        0.689575        0.689434        0.688922        0.688906        0.68873         0.687624        0.68841         0.688792        0.688761        0.688729        0.688698        0.687594        0.688319        0.687741        0.688069        0.688092        0.687881        0.687937        0.687993        0.688067        0.688109        0.688151        0.688193        0.688144        0.688066        0.687951        0.688187        0.687968        0.68792         0.688128        0.688118        0.68802         0.688028        0.688037        0.688046        0.687953        0.687825        0.688533        0.687756        0.688282        0.687724        0.687406        0.688518        0.687464        0.687402        0.688869        0.68736         0.688777        0.688278        0.689107        0.688531        0.688301        0.68712         0.686874        0.688163        0.687198        0.687221        0.688118        0.688093        0.688024        0.688186        0.68949         0.688721        0.68828         0.689413        0.688277        0.688495        0.689017        0.689193        0.689369        0.689545        0.689478        0.688627        0.689711        0.689828        0.689787        0.689873        0.690276        0.689753        0.69036         0.69016         0.69068         0.69084         0.690502        0.690544        0.690744        0.689698        0.690656        0.690699        0.690742        0.690785        0.690809        0.690836        0.691701        0.690888        0.690941        0.690758        0.69071         0.690653        0.690598        0.690513        0.690429        0.690345        0.689893        0.690344        0.688776        0.69004         0.680855        0.707469        0.68097         0.681028        0.713111        0.71481         0.726741        0.718823        0.72083         0.722711        0.724591        0.726472        0.732234        0.731095        0.733102        0.735108        0.735699        0.737365        0.739031        0.740698        0.744402        0.74637         0.748337        0.750305        0.752052        0.753931        0.755809        0.757687        0.753619        0.760341        0.761981        0.766808        0.764257        0.772424        0.772204        0.774554        0.776904        0.782737        0.782223        0.783338        0.778902        0.793045        0.795635        0.798224        0.796448        0.806002        0.809545        0.813088        0.813743        0.817479        0.821215        0.82979         0.828687        0.83283         0.835773        0.839316        0.843684
0.694547        0.694839        0.694918        0.694996        0.695075        0.69434         0.694251        0.694162        0.694072        0.695335        0.695498        0.695102        0.695825        0.694979        0.694835        0.69494         0.694547        0.694658        0.694596        0.694535        0.694473        0.694153        0.694012        0.693204        0.69373         0.693141        0.692981        0.692046        0.692661        0.693072        0.69304         0.691552        0.692977        0.691664        0.691417        0.691169        0.690922        0.691901        0.691957        0.692192        0.692069        0.69222         0.692262        0.692304        0.692345        0.692317        0.692331        0.692345        0.692359        0.692158        0.69211         0.692061        0.692013        0.692226        0.692235        0.692243        0.692252        0.692043        0.692008        0.692036        0.69194         0.691913        0.69189         0.691866        0.692751        0.691591        0.69153         0.69299         0.691407        0.692459        0.692586        0.691273        0.693393        0.691319        0.691165        0.692427        0.690857        0.691076        0.691865        0.692418        0.691145        0.69208         0.692242        0.692404        0.692566        0.692305        0.692376        0.692448        0.69252         0.693075        0.693251        0.693466        0.692847        0.693532        0.693648        0.693433        0.693881        0.693753        0.693786        0.693818        0.693851        0.694524        0.694684        0.694844        0.695004        0.694641        0.694699        0.694725        0.694766        0.694778        0.694821        0.694924        0.694907        0.694979        0.695005        0.695032        0.695058        0.693782        0.69516         0.695187        0.695215        0.694783        0.69444         0.694614        0.69453         0.694614        0.654847        0.694501        0.694445        0.693486        0.693379        0.708783        0.693164        0.694601        0.714439        0.726174        0.718451        0.720458        0.722339        0.725618        0.726101        0.730412        0.730957        0.73157         0.747725        0.73743         0.737171        0.738837        0.740504        0.745042        0.746092        0.747939        0.749786        0.751638        0.754707        0.754667        0.756557        0.75957         0.762238        0.76429         0.764488        0.768005        0.770355        0.766714        0.775055        0.777405        0.782456        0.785001        0.785383        0.786793        0.792205        0.791493        0.793843        0.8039          0.807443        0.807077        0.810484        0.813069        0.816973        0.826845        0.831232        0.828591        0.831556        0.835099        0.839445        0.843063
0.698765        0.699075        0.699153        0.699232        0.699311        0.698504        0.698415        0.699958        0.698237        0.69967         0.698425        0.699548        0.70016         0.699425        0.699281        0.699137        0.698993        0.699065        0.69907         0.698942        0.698881        0.697934        0.698449        0.697455        0.698167        0.69834         0.697232        0.697845        0.697598        0.697351        0.697319        0.697288        0.697256        0.695734        0.695487        0.695239        0.697098        0.695978        0.696034        0.69609         0.696146        0.696373        0.696414        0.696456        0.696498        0.696489        0.696503        0.696331        0.696532        0.696348        0.6963          0.696501        0.696203        0.696432        0.696441        0.69645         0.696459        0.696226        0.696192        0.696157        0.696123        0.696079        0.696056        0.695465        0.696009        0.697381        0.695657        0.695596        0.69692         0.696766        0.696893        0.69702         0.697147        0.695364        0.69521         0.695056        0.694902        0.694955        0.694978        0.695           0.695023        0.696136        0.696298        0.697827        0.696622        0.696329        0.696401        0.6969          0.697017        0.697454        0.697309        0.697485        0.697661        0.697585        0.697702        0.697818        0.697935        0.697851        0.697884        0.697917        0.69795         0.698688        0.698848        0.699008        0.699168        0.69878         0.698821        0.698864        0.698905        0.6989          0.699066        0.699094        0.699028        0.699149        0.699175        0.699202        0.699228        0.699323        0.69935         0.699081        0.699406        0.698968        0.698884        0.698799        0.698715        0.698827        0.69877         0.698468        0.698658        0.704454        0.706335        0.698362        0.697511        0.676517        0.682287        0.725608        0.693829        0.720086        0.723814        0.723848        0.700186        0.728813        0.730819        0.740132        0.734832        0.735311        0.740046        0.738644        0.74031         0.741782        0.745604        0.749616        0.751584        0.752505        0.754488        0.757361        0.75924         0.760437        0.762077        0.763716        0.765356        0.761239        0.763222        0.765205        0.767188        0.775448        0.778408        0.783224        0.785884        0.776513        0.792004        0.791988        0.797724        0.794059        0.804086        0.799978        0.809758        0.819514        0.8239          0.819867        0.823604        0.82734         0.831588        0.834425        0.837968        0.842442
0.703304        0.703232        0.703219        0.703206        0.703193        0.703061        0.703018        0.703202        0.702932        0.702819        0.702759        0.702699        0.702854        0.703156        0.703241        0.703557        0.703409        0.703144        0.70359         0.703576        0.703135        0.702318        0.70062         0.701373        0.701122        0.701586        0.701368        0.700891        0.700275        0.701011        0.700867        0.701373        0.701425        0.701249        0.701179        0.701368        0.701428        0.700942        0.700675        0.700789        0.700712        0.701032        0.700951        0.700969        0.700934        0.700832        0.70081         0.700732        0.70063         0.700792        0.700373        0.701109        0.700761        0.700841        0.701069        0.700865        0.700588        0.700667        0.700623        0.701126        0.700536        0.700981        0.701059        0.701138        0.701216        0.700479        0.700354        0.700229        0.700103        0.70114         0.701305        0.701007        0.701292        0.700956        0.70091         0.700864        0.700768        0.700853        0.700828        0.700802        0.70105         0.701195        0.701281        0.701996        0.701452        0.701774        0.701919        0.702064        0.702609        0.701331        0.70122         0.701588        0.700998        0.701759        0.703963        0.701973        0.700806        0.702102        0.702188        0.702665        0.702359        0.702577        0.70353         0.702815        0.704243        0.702403        0.702359        0.702532        0.702889        0.70272         0.7028          0.703202        0.701106        0.703097        0.701462        0.703285        0.702088        0.702887        0.702275        0.702345        0.702497        0.702412        0.702913        0.702632        0.702705        0.702609        0.702658        0.702707        0.702756        0.70218         0.702757        0.702514        0.70276         0.702904        0.703086        0.692144        0.697915        0.703686        0.719935        0.722213        0.724491        0.726769        0.702531        0.724976        0.702259        0.735881        0.739829        0.735892        0.739217        0.743268        0.745115        0.746962        0.748809        0.750829        0.752719        0.75461         0.7565          0.759905        0.762174        0.764443        0.769554        0.769167        0.771579        0.773799        0.776114        0.779348        0.781893        0.784438        0.786983        0.789706        0.791803        0.794885        0.797474        0.801049        0.806658        0.806721        0.812786        0.813377        0.816496        0.819541        0.822623        0.827006        0.830413        0.83382         0.837228        0.841019
0.707612        0.707448        0.707731        0.707715        0.707699        0.708329        0.70728         0.707238        0.708631        0.706858        0.706797        0.70743         0.706677        0.707423        0.707787        0.708248        0.707822        0.707469        0.707731        0.707463        0.70746         0.704996        0.706371        0.70611         0.705958        0.705205        0.705639        0.705456        0.704704        0.705135        0.705679        0.704847        0.705783        0.70568         0.705518        0.705485        0.705859        0.705511        0.705164        0.705087        0.705011        0.705311        0.705254        0.705356        0.70529         0.705047        0.704997        0.704948        0.705033        0.705045        0.704684        0.705025        0.705015        0.70522         0.70511         0.705151        0.705135        0.705832        0.704871        0.705912        0.704784        0.705331        0.705765        0.704435        0.705566        0.704765        0.70464         0.704515        0.704768        0.705464        0.705629        0.705794        0.705403        0.705388        0.705342        0.705296        0.705585        0.705366        0.705211        0.705186        0.705318        0.706598        0.705587        0.705673        0.70596         0.706412        0.706482        0.706552        0.706589        0.705424        0.705313        0.70809         0.705091        0.704608        0.70595         0.706057        0.706164        0.707696        0.705157        0.70641         0.706495        0.706673        0.706792        0.706254        0.70703         0.706413        0.706998        0.706578        0.706282        0.706767        0.706846        0.706925        0.707005        0.707211        0.707305        0.707399        0.707493        0.706921        0.706868        0.706544        0.706704        0.706412        0.707074        0.706831        0.706056        0.706714        0.707002        0.706987        0.707291        0.69943         0.706013        0.705906        0.705799        0.706789        0.706775        0.708103        0.693536        0.699307        0.699502        0.699697        0.723877        0.726155        0.730338        0.732185        0.743467        0.735878        0.738156        0.739364        0.740102        0.741642        0.744992        0.746838        0.748449        0.750718        0.752608        0.755791        0.756388        0.760423        0.762382        0.76496         0.768809        0.769726        0.772333        0.774649        0.776965        0.780084        0.782174        0.785174        0.787719        0.789573        0.792655        0.79586         0.79845         0.799295        0.802702        0.807573        0.810408        0.812404        0.816006        0.819088        0.82217         0.830392        0.829824        0.833232        0.836639        0.840198
0.711919        0.711664        0.711651        0.711638        0.711625        0.711586        0.711543        0.710728        0.711457        0.710896        0.710836        0.711697        0.710715        0.71169         0.711775        0.712388        0.711943        0.711794        0.711791        0.711788        0.711785        0.710837        0.71049         0.710424        0.710218        0.709021        0.709876        0.70914         0.709509        0.709259        0.710341        0.708972        0.708828        0.710111        0.710171        0.71023         0.71029         0.709539        0.709463        0.709386        0.709309        0.709303        0.709613        0.709635        0.709658        0.709263        0.709213        0.709163        0.709286        0.709298        0.709288        0.709278        0.709268        0.709355        0.709367        0.709379        0.709392        0.710182        0.709119        0.709931        0.709032        0.70968         0.709759        0.709837        0.709916        0.709051        0.708926        0.70988         0.709834        0.709788        0.709953        0.710118        0.710283        0.70982         0.709774        0.709728        0.709682        0.70962         0.709595        0.709569        0.709543        0.709809        0.709894        0.70998         0.710065        0.709171        0.710679        0.710824        0.710968        0.709584        0.709406        0.712013        0.709184        0.709927        0.711808        0.710141        0.712288        0.710375        0.710461        0.710856        0.710632        0.710768        0.710887        0.711006        0.711125        0.710423        0.710379        0.710336        0.710292        0.710813        0.710892        0.70968         0.711051        0.711325        0.710015        0.711513        0.711608        0.710955        0.710902        0.71085         0.710797        0.710412        0.710293        0.711033        0.710056        0.710819        0.709517        0.709698        0.710966        0.710061        0.709954        0.697127        0.697322        0.71103         0.677615        0.69788         0.710988        0.716428        0.718706        0.712154        0.723262        0.722481        0.724614        0.726747        0.734029        0.735876        0.738154        0.739241        0.74271         0.743021        0.744868        0.746715        0.748562        0.752301        0.753993        0.754386        0.758625        0.76094         0.763209        0.765798        0.768323        0.768389        0.773184        0.773631        0.77642         0.777888        0.78315         0.783614        0.785984        0.790425        0.792049        0.796836        0.797291        0.802752        0.805588        0.808424        0.81126         0.811815        0.817125        0.818822        0.822325        0.82871         0.829563        0.832643        0.83605         0.844343
0.716227        0.71588         0.715867        0.715854        0.715841        0.715848        0.715805        0.714766        0.71572         0.714935        0.714875        0.714814        0.714754        0.716946        0.716041        0.716533        0.71621         0.71612         0.716116        0.716113        0.71611         0.715097        0.714891        0.714684        0.714478        0.714295        0.714112        0.713265        0.713746        0.713384        0.71324         0.713096        0.712952        0.714543        0.714602        0.713793        0.714721        0.713838        0.714019        0.713684        0.713608        0.713702        0.713892        0.713914        0.713937        0.713503        0.713428        0.713378        0.713328        0.713552        0.713542        0.713699        0.713521        0.713096        0.713624        0.713253        0.713648        0.71341         0.713367        0.713323        0.71328         0.713194        0.714109        0.714187        0.714266        0.713337        0.713212        0.713086        0.712961        0.714112        0.714277        0.714303        0.714607        0.714251        0.714206        0.71416         0.714114        0.714004        0.713978        0.713953        0.713927        0.714116        0.715246        0.715136        0.714372        0.71333         0.715059        0.715203        0.715348        0.71361         0.713499        0.713839        0.713277        0.71401         0.714117        0.714224        0.714331        0.714511        0.714597        0.714683        0.714768        0.714864        0.714983        0.715102        0.71522         0.714433        0.714389        0.714346        0.714302        0.71486         0.714939        0.715018        0.715097        0.71544         0.715534        0.715226        0.715722        0.714989        0.714937        0.714884        0.714832        0.714412        0.714293        0.715139        0.714056        0.714924        0.714973        0.715543        0.715071        0.694043        0.713894        0.694434        0.694629        0.667465        0.715257        0.695187        0.715229        0.701979        0.718092        0.71622         0.722648        0.728486        0.725499        0.727632        0.729765        0.731898        0.738151        0.740429        0.742707        0.742898        0.744744        0.746591        0.748438        0.750494        0.752384        0.754275        0.759142        0.761458        0.763727        0.765996        0.768265        0.771718        0.770685        0.77635         0.778665        0.781556        0.784101        0.786646        0.789191        0.792633        0.791705        0.797812        0.800401        0.803604        0.80644         0.809276        0.812112        0.811226        0.8151          0.819275        0.821264        0.82524         0.828647        0.832054        0.835461        0.838555
0.720781        0.720261        0.720793        0.720228        0.720212        0.720664        0.720765        0.720999        0.72104         0.720153        0.720025        0.719897        0.720375        0.720223        0.72024         0.720669        0.720275        0.720166        0.719576        0.71968         0.720124        0.719161        0.718335        0.718658        0.719348        0.718492        0.718324        0.718157        0.718865        0.718701        0.718753        0.718814        0.718858        0.718568        0.718535        0.718502        0.718468        0.718076        0.717827        0.71783         0.717542        0.718146        0.718164        0.718182        0.718199        0.717787        0.717697        0.7176          0.717517        0.71765         0.717615        0.717581        0.718289        0.717749        0.716411        0.717799        0.717824        0.717618        0.716429        0.716327        0.716224        0.717912        0.717985        0.717839        0.717879        0.71747         0.716967        0.717196        0.717139        0.717623        0.71721         0.717861        0.717738        0.717829        0.717881        0.717932        0.718401        0.717765        0.717749        0.71803         0.717717        0.71817         0.718271        0.718372        0.718473        0.718449        0.71763         0.718589        0.718659        0.71845         0.72008         0.719857        0.718451        0.719412        0.718592        0.718135        0.718598        0.718521        0.718299        0.720653        0.720889        0.719293        0.719486        0.717536        0.719872        0.719168        0.718117        0.719106        0.719095        0.718437        0.718255        0.718317        0.717889        0.718541        0.718908        0.718593        0.718619        0.718989        0.719101        0.719213        0.719229        0.71928         0.719375        0.719509        0.719573        0.719563        0.719538        0.719572        0.719606        0.719568        0.719952        0.719837        0.719573        0.719512        0.719498        0.720301        0.719398        0.720028        0.720157        0.712833        0.719262        0.719483        0.726385        0.728518        0.73065         0.732783        0.710057        0.739433        0.738964        0.741315        0.73436         0.718355        0.718211        0.750715        0.753065        0.747281        0.757765        0.759776        0.761632        0.775979        0.7785          0.768742        0.770359        0.773225        0.788552        0.778222        0.780052        0.782962        0.785332        0.788706        0.791169        0.793948        0.800062        0.800246        0.803131        0.806015        0.8089          0.812349        0.815374        0.8184          0.821426        0.824604        0.827668        0.838512        0.835101        0.836463
0.724644        0.724853        0.724824        0.724794        0.725193        0.725065        0.725166        0.724694        0.724633        0.724573        0.724358        0.72423         0.724102        0.724489        0.724507        0.724055        0.723995        0.724422        0.724407        0.723706        0.723809        0.723782        0.72312         0.722868        0.722617        0.723335        0.722551        0.723215        0.722216        0.723124        0.723176        0.723228        0.723281        0.722311        0.723206        0.722324        0.722798        0.722316        0.722173        0.722605        0.721889        0.722425        0.722443        0.72246         0.722478        0.722025        0.721398        0.721845        0.721056        0.721864        0.72183         0.722042        0.72248         0.72075         0.721384        0.722026        0.722051        0.72091         0.720808        0.722365        0.721758        0.722145        0.722218        0.721642        0.722365        0.721115        0.721608        0.721641        0.721387        0.721744        0.721782        0.721821        0.721859        0.722048        0.721487        0.721791        0.722202        0.721993        0.721977        0.721961        0.721857        0.722413        0.722618        0.722615        0.722717        0.722618        0.722688        0.722758        0.721648        0.72273         0.722731        0.722731        0.723116        0.723825        0.72272         0.72224         0.724546        0.724147        0.723565        0.722181        0.722195        0.722303        0.723665        0.721742        0.724051        0.722916        0.723024        0.722315        0.723241        0.722632        0.722184        0.722001        0.721818        0.722402        0.72339         0.722454        0.723603        0.723014        0.723322        0.723238        0.72335         0.723497        0.723569        0.723799        0.723715        0.723802        0.723714        0.723979        0.724003        0.723916        0.72407         0.723406        0.72392         0.723664        0.72365         0.723636        0.723999        0.723623        0.724243        0.711012        0.724501        0.723477        0.717526        0.727743        0.723653        0.732009        0.714334        0.738659        0.738476        0.740826        0.735769        0.745092        0.747225        0.750686        0.753037        0.755387        0.757737        0.759744        0.761525        0.764274        0.76654         0.768636        0.770877        0.773118        0.77536         0.777941        0.779802        0.782681        0.785051        0.788456        0.791078        0.795722        0.79632         0.800045        0.80293         0.805815        0.808699        0.812145        0.815117        0.818143        0.821169        0.824206        0.832569        0.835513        0.838458        0.843115
0.728905        0.729977        0.728759        0.728743        0.728727        0.729466        0.729567        0.729668        0.729768        0.728819        0.728692        0.728564        0.728436        0.728756        0.728773        0.72918         0.728808        0.728677        0.728663        0.727916        0.72809         0.727582        0.72733         0.727079        0.726828        0.726945        0.726777        0.72661         0.726443        0.727546        0.727599        0.727651        0.727703        0.727228        0.726659        0.727375        0.727128        0.726643        0.726973        0.726397        0.726274        0.726704        0.726721        0.726739        0.726756        0.726264        0.726174        0.726029        0.725994        0.726079        0.726302        0.72601         0.725976        0.726203        0.726228        0.725947        0.726278        0.725288        0.726061        0.726598        0.725996        0.725537        0.726451        0.726524        0.726598        0.725966        0.725855        0.725762        0.725635        0.725865        0.726314        0.726298        0.72598         0.726266        0.726317        0.726369        0.72642         0.726221        0.726447        0.726189        0.726173        0.726657        0.726758        0.726787        0.72696         0.726787        0.726857        0.726927        0.726997        0.72701         0.72701         0.728683        0.727011        0.728238        0.728478        0.726345        0.728959        0.726076        0.726508        0.726286        0.72882         0.727651        0.727843        0.725948        0.728229        0.727551        0.72752         0.727489        0.727458        0.726296        0.726113        0.72604         0.725748        0.726263        0.726822        0.726315        0.726341        0.72704         0.727152        0.727264        0.727376        0.727714        0.727786        0.728037        0.727932        0.72804         0.728111        0.728182        0.728253        0.728263        0.728264        0.728266        0.728267        0.727816        0.727802        0.727788        0.728336        0.7282          0.728329        0.728458        0.712515        0.727865        0.724836        0.727868        0.729101        0.731234        0.733287        0.735637        0.724334        0.740338        0.74247         0.744603        0.746736        0.750658        0.753008        0.755229        0.757708        0.759712        0.761977        0.764242        0.766159        0.768529        0.770771        0.773012        0.775254        0.777571        0.779552        0.782399        0.785322        0.788207        0.790767        0.795052        0.79607         0.800425        0.802729        0.805614        0.808499        0.817519        0.815134        0.817886        0.824348        0.827651        0.826467        0.832514        0.831405        0.841484
0.733166        0.734378        0.734251        0.734123        0.733995        0.733063        0.733968        0.734068        0.734169        0.733079        0.733025        0.733051        0.732769        0.733022        0.733687        0.733057        0.733184        0.732933        0.732918        0.732904        0.73289         0.731793        0.731541        0.73129         0.731038        0.731171        0.731004        0.732035        0.730669        0.731969        0.732021        0.732073        0.732126        0.731557        0.731524        0.731491        0.731458        0.730927        0.730804        0.730681        0.730558        0.730982        0.731           0.730571        0.731035        0.730502        0.730218        0.730323        0.730233        0.730293        0.730529        0.730496        0.73019         0.730431        0.730455        0.73048         0.730505        0.730332        0.730941        0.730267        0.730234        0.73061         0.730684        0.730137        0.730831        0.730214        0.730103        0.729883        0.729882        0.729986        0.730024        0.730516        0.730101        0.730484        0.730536        0.730247        0.730639        0.730449        0.730433        0.730417        0.730401        0.730901        0.729864        0.731103        0.731204        0.730956        0.731026        0.731096        0.731166        0.73129         0.73129         0.731291        0.731291        0.732651        0.732891        0.733132        0.730643        0.730836        0.730613        0.73039         0.732786        0.732474        0.732022        0.732215        0.732408        0.731743        0.731712        0.731425        0.731649        0.730225        0.730042        0.72986         0.729677        0.730125        0.730151        0.73092         0.730202        0.731066        0.731177        0.731832        0.731401        0.732273        0.732003        0.732076        0.732149        0.732279        0.73235         0.73242         0.732624        0.73261         0.732611        0.73171         0.732614        0.73283         0.731954        0.73194         0.731926        0.732285        0.704044        0.732543        0.710694        0.714019        0.724061        0.732086        0.73235         0.730449        0.732799        0.73711         0.740435        0.739849        0.731329        0.744115        0.731041        0.745787        0.75298         0.75151         0.754371        0.759679        0.761945        0.76276         0.76786         0.768423        0.769515        0.775401        0.775147        0.777378        0.779748        0.782118        0.784488        0.788359        0.790578        0.793199        0.796618        0.799643        0.802386        0.805413        0.807392        0.81452         0.814603        0.817629        0.820655        0.821928        0.825867        0.828931        0.831995        0.839853
0.735758        0.736945        0.736916        0.736886        0.734968        0.737111        0.737153        0.737194        0.737236        0.737068        0.736532        0.737104        0.737209        0.736826        0.736644        0.736705        0.736645        0.736728        0.735987        0.736678        0.736654        0.736445        0.736374        0.736304        0.735623        0.736206        0.736147        0.736087        0.736519        0.736134        0.736116        0.736097        0.736079        0.735924        0.734782        0.735819        0.735767        0.735354        0.735212        0.735702        0.734927        0.735359        0.735062        0.734565        0.735362        0.734674        0.734502        0.734121        0.73416         0.734892        0.734881        0.733917        0.735055        0.734455        0.734768        0.734236        0.734127        0.734045        0.733943        0.733841        0.733272        0.734206        0.734246        0.732809        0.733097        0.733966        0.733906        0.733846        0.733786        0.73407         0.734096        0.734122        0.734384        0.73436         0.734433        0.734505        0.732856        0.734298        0.733866        0.733614        0.734251        0.734853        0.734992        0.733842        0.73527         0.734499        0.734866        0.734509        0.734234        0.735087        0.734664        0.734738        0.735115        0.735101        0.735104        0.736605        0.734867        0.736044        0.73628         0.736516        0.736751        0.734921        0.73464         0.73436         0.734877        0.735355        0.735463        0.735246        0.735294        0.73522         0.735187        0.735153        0.735284        0.735646        0.735078        0.735859        0.735965        0.735817        0.735941        0.735902        0.736143        0.736073        0.736349        0.736201        0.736166        0.736209        0.736383        0.736277        0.736311        0.736381        0.736424        0.736467        0.73593         0.736476        0.736889        0.736977        0.737065        0.736293        0.736247        0.736201        0.736293        0.736299        0.736655        0.736612        0.736304        0.736325        0.736331        0.736337        0.736153        0.735749        0.739998        0.742397        0.736191        0.747196        0.750058        0.752919        0.734267        0.756794        0.75927         0.761592        0.735479        0.766834        0.769344        0.771854        0.774333        0.77692         0.779441        0.781962        0.784555        0.787264        0.811389        0.792436        0.795022        0.798101        0.800811        0.80352         0.80623         0.808848        0.88783         0.816074        0.839905        0.820627        0.823572        0.826517        0.828371        0.829733
0.74018         0.741116        0.741087        0.741057        0.740246        0.741223        0.741265        0.741306        0.741348        0.741297        0.741286        0.741026        0.741265        0.740977        0.740917        0.741009        0.740796        0.741242        0.741282        0.740819        0.740794        0.740345        0.740213        0.740746        0.739951        0.740709        0.740719        0.740597        0.740739        0.740325        0.740474        0.740456        0.740437        0.73938         0.740211        0.740158        0.739017        0.739528        0.73951         0.739389        0.739474        0.739662        0.739663        0.739345        0.739666        0.738895        0.738476        0.738553        0.738826        0.739202        0.739257        0.739311        0.739366        0.738631        0.738522        0.738413        0.738303        0.738152        0.73805         0.738399        0.738782        0.737201        0.738319        0.737157        0.738399        0.73754         0.73803         0.73797         0.73791         0.738181        0.738207        0.738233        0.73859         0.738493        0.737407        0.737303        0.738711        0.737842        0.738415        0.7384          0.738384        0.738057        0.739163        0.739302        0.739441        0.738512        0.738423        0.738729        0.738247        0.739045        0.739393        0.739223        0.739687        0.739023        0.739061        0.739335        0.740705        0.740425        0.74066         0.739087        0.741132        0.738828        0.738547        0.739469        0.737986        0.739401        0.739395        0.739618        0.739492        0.739416        0.739383        0.739837        0.739315        0.739922        0.740029        0.740135        0.740242        0.740024        0.740066        0.740203        0.740237        0.740271        0.740467        0.740399        0.740463        0.74037         0.740404        0.740438        0.740472        0.740584        0.74018         0.74067         0.740713        0.740902        0.74099         0.741078        0.741166        0.740359        0.740313        0.740971        0.740497        0.740503        0.740782        0.740507        0.740204        0.722912        0.725773        0.740336        0.731497        0.740325        0.739118        0.734071        0.743917        0.740212        0.749178        0.751028        0.754901        0.756048        0.758447        0.760847        0.763246        0.766357        0.768867        0.771377        0.774008        0.776594        0.779115        0.781637        0.784194        0.786903        0.805369        0.798243        0.794662        0.797565        0.820494        0.802984        0.823986        0.807973        0.810659        0.813346        0.816033        0.819633        0.822578        0.825522        0.826689        0.828051
0.745683        0.744231        0.745258        0.745228        0.745198        0.745335        0.745376        0.745647        0.745459        0.745526        0.745515        0.745177        0.745493        0.745128        0.745068        0.745007        0.744947        0.745326        0.744984        0.745206        0.744934        0.744673        0.745016        0.744946        0.744875        0.745064        0.745004        0.744955        0.744885        0.745171        0.744832        0.744814        0.744796        0.744602        0.74455         0.744497        0.744445        0.743994        0.743851        0.743709        0.744137        0.743965        0.743967        0.743968        0.743969        0.743117        0.742946        0.742774        0.742603        0.743513        0.743567        0.742666        0.743677        0.742808        0.742698        0.743281        0.74248         0.742259        0.742157        0.742054        0.741952        0.74156         0.741731        0.742162        0.742473        0.742213        0.742153        0.742093        0.742033        0.741567        0.741638        0.742345        0.742371        0.742625        0.742698        0.742771        0.742843        0.742564        0.742549        0.742533        0.742518        0.743195        0.743334        0.742231        0.743612        0.742524        0.742436        0.743399        0.742259        0.743406        0.743552        0.743699        0.743846        0.742945        0.742948        0.745367        0.742955        0.744805        0.745041        0.742518        0.745513        0.742735        0.742455        0.742174        0.741893        0.743448        0.743556        0.743665        0.743773        0.743612        0.743578        0.743387        0.744156        0.744199        0.744305        0.744103        0.744518        0.744231        0.744273        0.744316        0.744435        0.744469        0.744533        0.744597        0.744661        0.744692        0.744566        0.74474         0.744634        0.745141        0.74483         0.744873        0.744916        0.744957        0.744981        0.745005        0.745029        0.744682        0.744379        0.744333        0.744287        0.738671        0.738527        0.738383        0.744712        0.744412        0.738102        0.727244        0.738115        0.732967        0.738238        0.740638        0.732536        0.745437        0.748298        0.75116         0.754021        0.743261        0.758316        0.760101        0.762501        0.744128        0.744259        0.7709          0.773682        0.776268        0.77879         0.781311        0.783833        0.786543        0.78897         0.801397        0.797528        0.797029        0.799739        0.81078         0.805158        0.809532        0.811809        0.812471        0.82385         0.818639        0.821583        0.747223        0.825007        0.826368
0.749868        0.749459        0.749429        0.749468        0.749369        0.748988        0.749488        0.74953         0.749571        0.749272        0.749353        0.749733        0.749722        0.749279        0.749218        0.749158        0.749098        0.749149        0.749124        0.749528        0.749075        0.749408        0.749338        0.749267        0.749196        0.749493        0.749366        0.749313        0.749314        0.749208        0.749368        0.749226        0.749154        0.748309        0.748888        0.748311        0.748784        0.748313        0.748171        0.748611        0.747886        0.748269        0.74827         0.74723         0.748272        0.747339        0.747168        0.747245        0.746825        0.747823        0.747878        0.747933        0.747987        0.746984        0.746875        0.747528        0.746656        0.746366        0.746606        0.746161        0.746059        0.746426        0.746466        0.746506        0.746546        0.746337        0.746277        0.746217        0.746157        0.746404        0.74598         0.746456        0.746482        0.746758        0.746831        0.746903        0.746976        0.746697        0.746682        0.746666        0.746651        0.747366        0.747505        0.746882        0.747783        0.746537        0.746448        0.747558        0.746271        0.747565        0.747712        0.747859        0.748006        0.746867        0.750028        0.74777         0.749467        0.749186        0.749422        0.749658        0.749893        0.746642        0.746362        0.746081        0.7458          0.747494        0.747603        0.747711        0.747888        0.747808        0.747774        0.748389        0.747707        0.748475        0.748581        0.748688        0.748794        0.748438        0.74848         0.748523        0.748565        0.748667        0.748731        0.748795        0.748859        0.748693        0.748727        0.748761        0.748795        0.749381        0.749033        0.749076        0.749119        0.749128        0.749222        0.749246        0.749269        0.748491        0.748445        0.748399        0.748353        0.748911        0.739412        0.748915        0.739125        0.748605        0.748513        0.748691        0.739           0.749336        0.748694        0.748709        0.731144        0.744557        0.747418        0.748615        0.753142        0.754557        0.757839        0.747337        0.74716         0.748388        0.748518        0               0.773356        0.775943        0.778464        0.780955        0.783598        0.786182        0.788433        0.795377        0.797426        0.796493        0.799203        0.80476         0.804622        0.806222        0.810815        0.811596        0.815368        0.818298        0.820044        0.821789        0.823324        0.824686
0.753509        0.753068        0.752694        0.752549        0.752642        0.753307        0.753366        0.752792        0.752834        0.753729        0.753834        0.75394         0.752865        0.753693        0.753717        0.753675        0.753666        0.753854        0.753895        0.753756        0.753649        0.753329        0.753552        0.753067        0.752936        0.753369        0.753           0.752902        0.753398        0.753295        0.753277        0.754438        0.753919        0.752811        0.75269         0.754322        0.754355        0.752739        0.752721        0.752703        0.752685        0.752498        0.752437        0.752429        0.752317        0.752146        0.752058        0.75197         0.752061        0.751659        0.751511        0.751411        0.751378        0.751737        0.751193        0.752013        0.751795        0.751559        0.751515        0.750671        0.750882        0.750653        0.750426        0.750446        0.750602        0.750616        0.750942        0.750597        0.750945        0.750955        0.750821        0.750393        0.751209        0.750537        0.750432        0.750845        0.750223        0.750823        0.750895        0.750966        0.750469        0.751065        0.750893        0.75096         0.752202        0.75128         0.751334        0.751648        0.751441        0.751637        0.750834        0.751815        0.752119        0.751613        0.751607        0.752116        0.751947        0.751907        0.752082        0.752053        0.752127        0.751745        0.751705        0.751664        0.751624        0.75194         0.751989        0.751756        0.751971        0.752005        0.752021        0.752101        0.752053        0.75213         0.752737        0.75245         0.752223        0.752533        0.752634        0.752734        0.752835        0.752765        0.752625        0.752881        0.752939        0.752913        0.75345         0.753583        0.753025        0.752853        0.753585        0.752814        0.75371         0.753206        0.75272         0.752691        0.75347         0.753185        0.75318         0.753175        0.752432        0.753168        0.753163        0.752769        0.753155        0.752798        0.752706        0.752553        0.752527        0.752857        0.7524          0.752886        0.752901        0.752834        0.752828        0.753276        0.752817        0.752124        0.753239        0.753286        0.751592        0.752647        0.752778        0.752908        0.753039        0               0.774954        0.777597        0.78024         0.782883        0.785526        0.788168        0.790811        0.793454        0.796097        0.79874         0.801383        0.801648        0.803697        0.805746        0.807794        0.808631        0.810377        0.812123        0.813869        0.754588
0.757587        0.757315        0.756957        0.757145        0.756879        0.757356        0.757415        0.757912        0.756973        0.757894        0.758           0.757829        0.757287        0.75791         0.75853         0.757892        0.757997        0.758136        0.757521        0.757531        0.757893        0.757551        0.757419        0.757288        0.757808        0.757386        0.757669        0.757679        0.757689        0.757586        0.757567        0.757549        0.75753         0.757033        0.756912        0.757206        0.758471        0.757086        0.757068        0.756959        0.757032        0.756971        0.756851        0.756757        0.756609        0.756514        0.756534        0.756212        0.756249        0.75585         0.755897        0.755798        0.755485        0.756845        0.756077        0.756391        0.755333        0.755938        0.755894        0.755077        0.755805        0.754765        0.75508         0.754986        0.754892        0.755218        0.755219        0.755385        0.75475         0.755176        0.755261        0.754437        0.75543         0.754581        0.755094        0.754371        0.755155        0.754954        0.754831        0.755011        0.755169        0.755118        0.755179        0.755297        0.756359        0.755475        0.755529        0.755786        0.755636        0.755774        0.755863        0.755238        0.756041        0.755741        0.755735        0.755413        0.755392        0.755872        0.756283        0.755804        0.7565          0.755951        0.755911        0.755782        0.75583         0.75591         0.756135        0.756138        0.75609         0.756201        0.756217        0.756049        0.756249        0.756251        0.756282        0.756596        0.756344        0.756649        0.756652        0.756655        0.757014        0.756938        0.756996        0.756783        0.757112        0.75709         0.757127        0.756795        0.757201        0.756971        0.757061        0.756941        0.756926        0.756965        0.757477        0.756906        0.757653        0.757408        0.757403        0.75757         0.757393        0.757205        0.757253        0.757376        0.757372        0.756847        0.75682         0.756644        0.75664         0.756692        0.756691        0.757163        0.757177        0.754243        0.754238        0.754232        0.750826        0.757357        0.757404        0.748839        0.750424        0.7491          0.749231        0.749361        0.757289        0.757217        0.75723         0.756577        0.779145        0.756539        0.78443         0.787073        0.756323        0.792866        0.794935        0.756353        0.798103        0.799849        0.756711        0.803946        0.819143        0.805633        0.807378        0.758994        0.758753        0.758512
0.76173         0.761129        0.760987        0.761193        0.760703        0.761404        0.762086        0.761524        0.761583        0.762059        0.762165        0.76227         0.762376        0.762127        0.762118        0.762242        0.7621          0.762418        0.762458        0.761752        0.762539        0.761334        0.762005        0.761509        0.761378        0.76195         0.76196         0.76197         0.76198         0.761876        0.761858        0.761839        0.761821        0.761255        0.761134        0.761013        0.760892        0.761432        0.761331        0.761243        0.761378        0.761323        0.761007        0.761125        0.760886        0.760882        0.760794        0.760706        0.760617        0.760555        0.75992         0.759798        0.759677        0.760377        0.760397        0.760417        0.760436        0.760317        0.760272        0.760228        0.760184        0.758876        0.75865         0.75963         0.758196        0.758941        0.758932        0.758922        0.7595          0.759398        0.759482        0.759567        0.759652        0.758625        0.75852         0.758964        0.758311        0.759086        0.759157        0.759229        0.7593          0.759171        0.759232        0.759492        0.759353        0.759671        0.759724        0.759778        0.759832        0.759911        0.76            0.76009         0.759796        0.759869        0.759863        0.759919        0.759852        0.759838        0.759911        0.759985        0.760058        0.760168        0.760117        0.760076        0.760036        0.760233        0.760282        0.76033         0.760379        0.760397        0.760413        0.760429        0.760445        0.760372        0.760403        0.760434        0.760465        0.760891        0.760992        0.761092        0.761193        0.761111        0.761311        0.761227        0.761285        0.761266        0.761303        0.76134         0.761377        0.761308        0.761586        0.761059        0.761044        0.761571        0.761645        0.76164         0.761836        0.761632        0.761627        0.761621        0.761616        0.761602        0.761598        0.761593        0.761589        0.761035        0.760943        0.760851        0.760758        0.76141         0.756185        0.756008        0.761454        0.755653        0.749397        0.755641        0.761245        0.749789        0.761568        0.749434        0.749257        0.745553        0.761172        0.76113         0.761462        0.76139         0.761404        0.761417        0.760862        0.760554        0.76077         0.785978        0.788621        0.760719        0.793773        0.76068         0.760661        0.760959        0.800097        0.802146        0.816145        0.761604        0.804379        0.806125        0.762676        0.761809
0.765873        0.76516         0.765018        0.765242        0.764734        0.765453        0.766251        0.766242        0.765632        0.766224        0.76633         0.766263        0.766541        0.766343        0.766334        0.766325        0.766316        0.766699        0.76674         0.76678         0.76682         0.765993        0.766296        0.76573         0.765599        0.766241        0.766251        0.766261        0.76627         0.766166        0.766148        0.76613         0.766111        0.765477        0.765356        0.765899        0.765114        0.765778        0.76576         0.765742        0.765724        0.765352        0.765291        0.765493        0.765171        0.76525         0.765162        0.765073        0.764985        0.764875        0.764112        0.76399         0.763868        0.765602        0.764717        0.764737        0.764756        0.764695        0.764651        0.764606        0.762998        0.762988        0.762762        0.762535        0.762308        0.763103        0.763094        0.763283        0.763076        0.763619        0.763704        0.763788        0.763873        0.762669        0.762564        0.763096        0.763715        0.763217        0.763288        0.76336         0.763432        0.763224        0.763285        0.763687        0.763777        0.763866        0.763919        0.764061        0.764027        0.764049        0.764138        0.764227        0.764316        0.763965        0.763991        0.763986        0.76398         0.764168        0.763877        0.764265        0.764024        0.764315        0.764323        0.764282        0.764242        0.764468        0.764428        0.76453         0.764525        0.764089        0.764609        0.764291        0.764641        0.764492        0.764524        0.764555        0.764586        0.76507         0.765171        0.765272        0.765372        0.765284        0.765487        0.7654          0.765458        0.765442        0.765479        0.765031        0.765553        0.765207        0.765192        0.765177        0.765162        0.765753        0.765842        0.76593         0.766018        0.765855        0.76585         0.765845        0.76584         0.765819        0.765815        0.765125        0.765806        0.765154        0.765061        0.765699        0.764877        0.757772        0.765702        0.765716        0.75724         0.757062        0.765442        0.74836         0.748491        0.765686        0.765409        0.765422        0.748089        0.765449        0.765407        0.765708        0.765636        0.765564        0.765577        0.765591        0.765165        0.764881        0.765074        0.784882        0.76493         0.76482         0.765026        0.792757        0.794503        0.765248        0.76529         0.765331        0.802395        0.765785        0.765892        0.765999        0.766051        0.766359
0.77111         0.770742        0.770597        0.770451        0.770306        0.77058         0.770745        0.770499        0.770703        0.770565        0.770561        0.770558        0.770554        0.770733        0.770775        0.770817        0.770859        0.770671        0.770655        0.77064         0.770624        0.770643        0.770453        0.770414        0.770621        0.770248        0.77015         0.770737        0.769953        0.770588        0.770673        0.770631        0.770659        0.77072         0.770753        0.770786        0.769735        0.770355        0.770354        0.769916        0.769903        0.769873        0.769753        0.769632        0.770108        0.769553        0.769868        0.769393        0.769313        0.769157        0.769058        0.768959        0.76886         0.768725        0.768343        0.768509        0.768401        0.768419        0.768343        0.768266        0.76819         0.768043        0.767125        0.767855        0.767762        0.76805         0.767389        0.768673        0.768055        0.76778         0.767713        0.76751         0.768696        0.767903        0.767933        0.767964        0.767219        0.767852        0.767839        0.767827        0.768347        0.76841         0.768549        0.768689        0.767644        0.768159        0.768166        0.767153        0.767971        0.768425        0.768492        0.768559        0.768625        0.768342        0.768321        0.7683          0.768963        0.768776        0.768884        0.768993        0.768544        0.768492        0.768421        0.769296        0.769206        0.768732        0.768792        0.769405        0.76955         0.768774        0.768785        0.768047        0.768918        0.769213        0.769322        0.769375        0.769215        0.769225        0.769228        0.769231        0.769234        0.769239        0.769114        0.769246        0.769249        0.769481        0.768467        0.768396        0.769663        0.769731        0.77            0.769855        0.769918        0.769611        0.769581        0.769552        0.769522        0.769484        0.769453        0.769421        0.769777        0.769676        0.769724        0.769772        0.76982         0.769572        0.769546        0.76952         0.769823        0.769566        0.770185        0.770234        0.769562        0.769663        0.769688        0.769712        0.769736        0.76985         0.769518        0.769944        0.769991        0.769684        0.769347        0.769601        0.76997         0.769737        0.769718        0.769764        0.769377        0.76945         0.769789        0.76929         0.769905        0.769373        0.769628        0.769324        0.769941        0.769538        0.769092        0.76962         0.769633        0.769966        0.770073        0.769494        0.770286        0.770283
0.775735        0.775344        0.775015        0.77487         0.775291        0.774898        0.774858        0.774817        0.774777        0.774774        0.77477         0.775024        0.774763        0.774993        0.774454        0.774636        0.774269        0.774676        0.774859        0.774844        0.774499        0.774971        0.774777        0.774957        0.774817        0.774703        0.77437         0.774271        0.774172        0.774808        0.774837        0.77538         0.774894        0.775197        0.77523         0.774118        0.775296        0.774239        0.774227        0.774214        0.774486        0.774217        0.774096        0.773992        0.773855        0.773905        0.773825        0.773745        0.773665        0.773042        0.773432        0.773333        0.773689        0.772898        0.772864        0.772621        0.772648        0.772979        0.772558        0.771589        0.772405        0.772391        0.771367        0.772203        0.770966        0.77184         0.77241         0.772412        0.772413        0.771987        0.771919        0.772881        0.772257        0.772244        0.772275        0.77183         0.772336        0.772997        0.772097        0.772084        0.772592        0.772112        0.772885        0.772002        0.773164        0.772706        0.772316        0.771524        0.77219         0.77209         0.772689        0.772756        0.7716          0.773277        0.772918        0.773135        0.772461        0.772772        0.772785        0.77321         0.773319        0.772214        0.772132        0.77205         0.772465        0.77293         0.77229         0.772747        0.77311         0.772966        0.772977        0.772987        0.772998        0.773484        0.773593        0.773703        0.773422        0.773398        0.773527        0.773404        0.773407        0.773326        0.773361        0.773364        0.773223        0.773623        0.772726        0.773649        0.772584        0.773916        0.774012        0.773776        0.77419         0.773713        0.774063        0.774029        0.773623        0.773559        0.773881        0.773496        0.773464        0.773803        0.773851        0.773899        0.773625        0.773765        0.773739        0.773713        0.773687        0.773744        0.773742        0.773741        0.774431        0.773871        0.773989        0.773968        0.773944        0.774282        0.774329        0.773916        0.774422        0.773943        0.773574        0.77386         0.773818        0.766169        0.773924        0.773938        0.766111        0.763188        0.76602         0.76327         0.774139        0.774117        0.774121        0.773894        0.774129        0.76151         0.773389        0.773525        0.773901        0.774226        0.760406        0.774812        0.77379         0.774206
0.779619        0.779579        0.779433        0.779288        0.779143        0.779217        0.779176        0.778899        0.779095        0.778983        0.778979        0.778976        0.778972        0.779253        0.779295        0.779337        0.779379        0.779079        0.779063        0.779048        0.779398        0.779299        0.779292        0.779285        0.779141        0.778688        0.778589        0.778491        0.778392        0.779235        0.77932         0.778608        0.779766        0.779674        0.779707        0.77974         0.779284        0.779163        0.779072        0.778721        0.77889         0.778561        0.77844         0.77832         0.778199        0.778257        0.778177        0.778122        0.778017        0.777906        0.777423        0.777708        0.777609        0.777219        0.777111        0.777037        0.776896        0.776849        0.776772        0.776696        0.776619        0.776739        0.776645        0.776902        0.776457        0.776767        0.776769        0.77677         0.776772        0.776636        0.776126        0.776611        0.775991        0.775809        0.776616        0.776088        0.776678        0.776367        0.77727         0.776341        0.776329        0.7764          0.777221        0.777361        0.7775          0.776598        0.776535        0.776862        0.77641         0.77682         0.776886        0.776953        0.77702         0.776706        0.776685        0.776664        0.776643        0.775979        0.777319        0.776745        0.777536        0.776865        0.776794        0.777107        0.776652        0.777128        0.777617        0.776939        0.777308        0.777159        0.777745        0.77718         0.77719         0.777754        0.777864        0.777974        0.778083        0.777571        0.777574        0.777577        0.77758         0.777476        0.777479        0.777641        0.777486        0.777765        0.776985        0.778229        0.777947        0.778169        0.778232        0.777877        0.778356        0.777814        0.777784        0.777538        0.777724        0.777634        0.777602        0.777571        0.777539        0.77793         0.777948        0.778026        0.778074        0.777959        0.777932        0.777906        0.77788         0.777921        0.77792         0.778531        0.777917        0.778078        0.778102        0.778797        0.778151        0.778714        0.77876         0.777962        0.778854        0.778202        0.778161        0.778228        0.778156        0.76281         0.777928        0.77788         0.778125        0.762733        0.757209        0.76259         0.778373        0.778305        0.753161        0.753268        0.778317        0.753482        0.753524        0.777822        0.753606        0.77815         0.778145        0.778962        0.778135        0.77813
0.784374        0.783997        0.783852        0.783707        0.783539        0.783535        0.783495        0.783108        0.783414        0.783576        0.783188        0.783544        0.783529        0.783513        0.783555        0.783297        0.78329         0.784022        0.783267        0.783252        0.783236        0.783627        0.78362         0.782738        0.783464        0.782908        0.782809        0.783492        0.782612        0.783558        0.783643        0.783728        0.784243        0.784049        0.784184        0.784217        0.782637        0.783567        0.783476        0.783065        0.783294        0.782905        0.782784        0.782664        0.782543        0.782609        0.782529        0.782669        0.782368        0.782281        0.782181        0.782082        0.781983        0.781467        0.781359        0.781251        0.781143        0.780702        0.780987        0.780911        0.780834        0.780352        0.780992        0.780898        0.780804        0.781125        0.781127        0.781129        0.78113         0.780978        0.780332        0.780953        0.78094         0.780927        0.780958        0.780345        0.781019        0.780624        0.780611        0.781544        0.780586        0.781418        0.781558        0.781697        0.781836        0.779969        0.780755        0.780692        0.78063         0.781017        0.781084        0.78115         0.781217        0.780888        0.780867        0.780846        0.780825        0.781428        0.781536        0.781645        0.781753        0.781052        0.780981        0.78091         0.780838        0.781326        0.781022        0.781446        0.781506        0.781351        0.781362        0.782019        0.781383        0.782025        0.782135        0.782244        0.782354        0.781744        0.781747        0.78175         0.781753        0.781594        0.781598        0.781601        0.781605        0.781907        0.781968        0.782028        0.782089        0.782389        0.782451        0.781979        0.782576        0.781915        0.781885        0.781856        0.781826        0.781709        0.781677        0.781645        0.781614        0.782057        0.782105        0.782155        0.782201        0.782152        0.782126        0.78205         0.782074        0.782099        0.782097        0.782096        0.782095        0.782286        0.78231         0.782334        0.783187        0.783145        0.783192        0.783239        0.783285        0.782462        0.78242         0.782378        0.782337        0.782258        0.759433        0.782285        0.759394        0.759375        0.759303        0.782548        0.75916         0.751312        0.751293        0.782431        0.751254        0.740649        0.782431        0.782434        0.745578        0.740966        0.782068        0.74118         0.741287        0.782053
0.788775        0.788644        0.788575        0.788624        0.788435        0.78856         0.788539        0.788518        0.788497        0.788254        0.788177        0.787802        0.78763         0.787883        0.788094        0.787697        0.788094        0.787645        0.787586        0.787527        0.787467        0.787726        0.787458        0.787767        0.787787        0.787397        0.786344        0.78617         0.787078        0.787512        0.787094        0.787209        0.787158        0.787184        0.787024        0.78702         0.786938        0.787134        0.787121        0.787108        0.787096        0.787076        0.787062        0.78623         0.787033        0.786805        0.786737        0.786618        0.786616        0.786704        0.786679        0.786919        0.786629        0.786149        0.78601         0.785871        0.785733        0.786005        0.785969        0.785933        0.786352        0.785203        0.786238        0.784802        0.784602        0.785159        0.785148        0.785241        0.785126        0.785526        0.785077        0.785005        0.784933        0.785022        0.785063        0.78477         0.784971        0.785197        0.785241        0.784565        0.785329        0.785036        0.784995        0.784967        0.784915        0.785225        0.785272        0.785319        0.785175        0.784931        0.784858        0.784785        0.784711        0.785524        0.785772        0.785766        0.785968        0.785578        0.785591        0.785605        0.785847        0.785249        0.785166        0.78561         0.785002        0.785828        0.785973        0.786118        0.785629        0.785468        0.786299        0.7857          0.785198        0.785798        0.78593         0.786038        0.78589         0.785993        0.786042        0.786091        0.78614         0.785856        0.785822        0.785788        0.785754        0.785573        0.784112        0.786046        0.786057        0.785938        0.78603         0.785495        0.786212        0.786472        0.786606        0.786557        0.786873        0.786442        0.786434        0.786187        0.786927        0.786304        0.786455        0.786442        0.786202        0.786539        0.786598        0.786656        0.787043        0.786732        0.786467        0.786715        0.786415        0.786646        0.786624        0.786451        0.786582        0.786508        0.786597        0.78644         0.786583        0.786624        0.786653        0.786682        0.786212        0.786431        0.786383        0.786657        0.786343        0.786665        0.786795        0.786781        0.786201        0.786681        0.786685        0.786202        0.786694        0.786695        0.787127        0.786702        0.786706        0.786688        0.786686        0.787264        0.787019        0.787229
0.793425        0.79312         0.79305         0.792981        0.792911        0.792527        0.793034        0.792861        0.792992        0.792676        0.792599        0.79285         0.792446        0.79217         0.792487        0.791849        0.791892        0.791889        0.79183         0.79177         0.791711        0.791833        0.792018        0.790906        0.792058        0.791685        0.791602        0.79152         0.791825        0.791743        0.791772        0.791473        0.791505        0.7913          0.791218        0.791136        0.791054        0.791276        0.791261        0.791303        0.79129         0.791377        0.791362        0.790976        0.790551        0.791118        0.79105         0.790982        0.790935        0.791091        0.791066        0.7909          0.7909          0.790505        0.790942        0.790227        0.790133        0.790401        0.790025        0.789515        0.790293        0.789493        0.790525        0.789253        0.788891        0.789437        0.789698        0.789415        0.789404        0.789963        0.789447        0.789214        0.789304        0.789302        0.789176        0.789351        0.788924        0.789231        0.789051        0.789621        0.788868        0.789254        0.789152        0.789638        0.789071        0.789491        0.789538        0.789585        0.789633        0.789058        0.789779        0.789821        0.789637        0.789819        0.789967        0.790115        0.789969        0.789778        0.789792        0.789148        0.789819        0.789438        0.789356        0.790283        0.789191        0.790102        0.789884        0.789476        0.790537        0.789641        0.789551        0.789461        0.790496        0.789944        0.790027        0.79008         0.79006         0.790155        0.790168        0.790283        0.790194        0.790011        0.789977        0.789798        0.789908        0.789596        0.790181        0.789723        0.790203        0.78999         0.788762        0.790703        0.788442        0.789955        0.790821        0.790954        0.791088        0.790685        0.79081         0.790935        0.790658        0.790462        0.790427        0.790606        0.790359        0.790781        0.790839        0.791118        0.790957        0.790702        0.790676        0.79112         0.791168        0.790892        0.79087         0.790903        0.790945        0.790673        0.790639        0.790604        0.790798        0.790859        0.790888        0.790917        0.790946        0.790605        0.790557        0.790594        0.79046         0.790969        0.791027        0.791085        0.791143        0.790572        0.790531        0.790988        0.790448        0.790985        0.790988        0.790991        0.790995        0.790869        0.790867        0.790865        0.790864        0.791466
0.797845        0.797596        0.797526        0.797456        0.797387        0.79755         0.796906        0.797508        0.797487        0.797098        0.797021        0.796944        0.796868        0.796458        0.796365        0.796092        0.79618         0.796597        0.796073        0.796014        0.795955        0.795293        0.796289        0.795915        0.796329        0.796303        0.79589         0.795808        0.795725        0.795974        0.796003        0.796032        0.79606         0.795416        0.795334        0.795252        0.79517         0.795523        0.79551         0.795813        0.795745        0.795677        0.795663        0.795649        0.795634        0.796033        0.795363        0.795295        0.795227        0.795478        0.795453        0.794933        0.795402        0.794861        0.794722        0.794583        0.795152        0.794798        0.794762        0.793805        0.79469         0.793783        0.793582        0.793382        0.793181        0.793714        0.793703        0.793692        0.793681        0.794399        0.794491        0.793494        0.794674        0.793582        0.793456        0.79333         0.793204        0.79387         0.793914        0.793957        0.794001        0.793349        0.793977        0.793268        0.793228        0.793757        0.793805        0.793852        0.793899        0.793184        0.793111        0.793038        0.792964        0.794115        0.794263        0.794143        0.794559        0.793979        0.793992        0.794006        0.794019        0.793627        0.793545        0.793463        0.79338         0.794376        0.794521        0.79365         0.794811        0.793815        0.793725        0.793635        0.793545        0.79409         0.794173        0.794446        0.794338        0.794378        0.794427        0.794475        0.794524        0.794165        0.794131        0.794034        0.794062        0.793619        0.793548        0.793477        0.793406        0.794042        0.794133        0.794225        0.794316        0.794903        0.795036        0.79517         0.795303        0.79492         0.794913        0.794905        0.795192        0.794619        0.794584        0.794926        0.794516        0.795022        0.795081        0.795358        0.795198        0.795315        0.795363        0.795206        0.795459        0.795137        0.795116        0.795094        0.795169        0.794837        0.794803        0.795191        0.795142        0.795094        0.795123        0.794662        0.795181        0.794778        0.79473         0.795264        0.795268        0.795272        0.795331        0.795389        0.795447        0.795335        0.79534         0.795344        0.795348        0.795274        0.795277        0.794779        0.795284        0.795771        0.795048        0.795737        0.79572         0.795703
0.802245        0.802071        0.802002        0.802441        0.801862        0.802046        0.802025        0.802004        0.801983        0.80152         0.801443        0.800864        0.80129         0.800745        0.800652        0.80056         0.800467        0.800377        0.800317        0.800258        0.800198        0.800539        0.80056         0.800202        0.8006          0.800259        0.800451        0.800095        0.800013        0.800205        0.800234        0.800263        0.800291        0.799775        0.79945         0.799368        0.799732        0.799717        0.799705        0.799692        0.800046        0.799978        0.799964        0.799949        0.799935        0.799744        0.799676        0.799608        0.800003        0.799361        0.799839        0.799814        0.799789        0.799996        0.799078        0.799595        0.799395        0.799194        0.799158        0.799122        0.799086        0.798073        0.797872        0.797672        0.797471        0.797991        0.79798         0.798353        0.797958        0.798836        0.798927        0.798246        0.799111        0.797862        0.797735        0.798287        0.797483        0.798206        0.79825         0.798294        0.798337        0.797505        0.797465        0.798171        0.797384        0.798024        0.798071        0.797015        0.798165        0.797311        0.797237        0.797164        0.797091        0.79841         0.798558        0.798706        0.798854        0.798179        0.798192        0.798206        0.798219        0.797816        0.797734        0.797652        0.79757         0.798651        0.798796        0.79894         0.799085        0.797988        0.797898        0.798139        0.797718        0.798237        0.798319        0.798638        0.798484        0.79857         0.798619        0.798461        0.798716        0.79832         0.798285        0.797459        0.798217        0.797642        0.797158        0.7975          0.797429        0.799149        0.798185        0.7973          0.798368        0.799118        0.799251        0.799385        0.799194        0.799159        0.799152        0.799144        0.799325        0.798776        0.798741        0.799168        0.798673        0.799692        0.799323        0.799649        0.79944         0.799606        0.799654        0.799452        0.799751        0.799383        0.799361        0.798944        0.798973        0.799522        0.798968        0.799426        0.798899        0.799329        0.799358        0.798835        0.799416        0.798952        0.798904        0.798856        0.798807        0.799649        0.799634        0.799693        0.799659        0.79957         0.799667        0.799671        0.799675        0.799563        0.799567        0.79957         0.799574        0.800008        0.799228        0.799227        0.799225        0.799724
0.806035        0.806379        0.806752        0.806234        0.806161        0.806355        0.806349        0.805664        0.806337        0.805664        0.805491        0.80567         0.805617        0.805664        0.804876        0.805664        0.805664        0.804937        0.805542        0.805865        0.8058          0.80502         0.80504         0.804578        0.804835        0.804324        0.804315        0.803976        0.803802        0.804451        0.804179        0.804515        0.804035        0.804387        0.804371        0.804466        0.804222        0.804326        0.804311        0.804158        0.804403        0.804001        0.80392         0.803838        0.803757        0.803956        0.803945        0.804035        0.803923        0.803957        0.803957        0.803871        0.803897        0.803817        0.803782        0.802948        0.803712        0.803374        0.803263        0.803152        0.803903        0.803384        0.803386        0.803389        0.803391        0.802918        0.802769        0.802685        0.802569        0.802632        0.802455        0.802489        0.802417        0.802447        0.802147        0.802115        0.802308        0.802179        0.802112        0.802094        0.801978        0.802307        0.802339        0.802371        0.802522        0.80233         0.802336        0.802424        0.802347        0.802413        0.802434        0.802455        0.802476        0.802528        0.802284        0.803108        0.802213        0.802652        0.802683        0.802713        0.802744        0.802628        0.802621        0.802038        0.802609        0.802541        0.80252         0.802813        0.802837        0.802709        0.802751        0.802793        0.802835        0.802629        0.802609        0.802589        0.802738        0.802681        0.802788        0.802706        0.802719        0.802564        0.802535        0.802506        0.802882        0.802608        0.802619        0.80263         0.80182         0.801968        0.801808        0.802334        0.801488        0.802584        0.802614        0.802892        0.802644        0.803084        0.803208        0.803333        0.802704        0.803073        0.80307         0.803483        0.803064        0.803431        0.803597        0.803697        0.803699        0.803327        0.803431        0.803275        0.803468        0.803493        0.803534        0.803576        0.804145        0.803464        0.803674        0.803658        0.803443        0.803365        0.803341        0.803212        0.803717        0.803341        0.803335        0.80328         0.803323        0.803599        0.803664        0.803728        0.803793        0.803434        0.803889        0.803712        0.803947        0.803767        0.803851        0.803864        0.803371        0.803879        0.803907        0.803949        0.80397         0.803832
0.81051         0.810812        0.811049        0.810667        0.810313        0.810259        0.81011         0.810791        0.809812        0.810016        0.809844        0.809671        0.809498        0.810157        0.810109        0.810109        0.810197        0.80926         0.809079        0.808897        0.808716        0.809343        0.809393        0.8093          0.809207        0.808756        0.808381        0.808207        0.808033        0.808686        0.808733        0.80875         0.808432        0.808688        0.808868        0.808655        0.80858         0.808738        0.808609        0.808255        0.808579        0.808232        0.808362        0.808333        0.808303        0.807939        0.808233        0.808222        0.807679        0.80827         0.808232        0.808455        0.808283        0.808234        0.808199        0.808163        0.808128        0.807716        0.808156        0.808162        0.807383        0.807644        0.807255        0.807501        0.807009        0.807201        0.807165        0.807125        0.806954        0.806908        0.806837        0.806682        0.806716        0.806619        0.806757        0.80636         0.806519        0.806424        0.806357        0.807084        0.806223        0.806625        0.806657        0.806689        0.806765        0.806606        0.806612        0.806618        0.807012        0.806976        0.806984        0.806825        0.806846        0.80678         0.806808        0.806932        0.807186        0.807122        0.806951        0.8064          0.806994        0.806448        0.806384        0.80696         0.806954        0.806719        0.806698        0.806406        0.806443        0.80648         0.807061        0.807103        0.806309        0.806678        0.806715        0.806752        0.806789        0.806852        0.806865        0.807125        0.806978        0.806967        0.806712        0.807187        0.807027        0.806867        0.806878        0.806889        0.8069          0.805976        0.806793        0.805656        0.806878        0.806805        0.80682         0.80725         0.807074        0.807244        0.807369        0.807494        0.807619        0.807758        0.807262        0.807259        0.807256        0.807654        0.807743        0.807845        0.807944        0.8076          0.807618        0.807423        0.807397        0.807705        0.807746        0.807753        0.807829        0.807703        0.807833        0.807816        0.807682        0.807551        0.807861        0.807501        0.807921        0.807998        0.807562        0.807556        0.80755         0.807847        0.807897        0.807921        0.808026        0.808041        0.807581        0.807539        0.807498        0.808035        0.80768         0.807657        0.808285        0.808176        0.808095        0.808016        0.80826         0.807973
0.815427        0.815246        0.815173        0.815101        0.815028        0.815252        0.815246        0.814369        0.815234        0.81528         0.814196        0.814917        0.814736        0.814554        0.814554        0.813542        0.814554        0.813583        0.813402        0.814015        0.813039        0.813667        0.813687        0.813708        0.813728        0.812787        0.812969        0.812439        0.812265        0.812921        0.813034        0.813019        0.813017        0.812988        0.812972        0.812956        0.81294         0.812922        0.812907        0.812486        0.812877        0.812463        0.812382        0.812301        0.81222         0.812532        0.812521        0.812653        0.812498        0.812583        0.812583        0.812583        0.812584        0.81265         0.812615        0.812053        0.812545        0.812058        0.811947        0.811836        0.811725        0.812474        0.812477        0.812479        0.812482        0.811798        0.811681        0.811565        0.811448        0.811427        0.811113        0.811293        0.811226        0.811159        0.811113        0.811067        0.811021        0.81067         0.810603        0.810536        0.810469        0.810943        0.810975        0.810841        0.810862        0.810883        0.810888        0.810894        0.8109          0.811154        0.811175        0.811196        0.811217        0.811031        0.81106         0.811088        0.811117        0.811403        0.81122         0.811251        0.811339        0.811317        0.811311        0.811305        0.811299        0.810898        0.810876        0.810854        0.811349        0.811329        0.811371        0.811413        0.81087         0.811044        0.811024        0.811082        0.811053        0.811024        0.811037        0.810896        0.811063        0.811765        0.810889        0.81086         0.810831        0.811126        0.811136        0.811147        0.811158        0.809983        0.809823        0.810915        0.809503        0.81064         0.810794        0.81141         0.811102        0.811405        0.811529        0.811654        0.811779        0.811457        0.811454        0.811451        0.811448        0.811458        0.811966        0.812056        0.812145        0.811624        0.811598        0.811572        0.811546        0.811916        0.811958        0.811999        0.812041        0.811942        0.811935        0.811928        0.811921        0.811736        0.811711        0.811687        0.811662        0.812232        0.81179         0.811784        0.811777        0.812066        0.812131        0.812196        0.81226         0.812192        0.811769        0.812248        0.811686        0.812303        0.812387        0.81247         0.812554        0.812153        0.812502        0.81253         0.812558        0.812095
0.819864        0.819679        0.820218        0.820046        0.819873        0.8197          0.819694        0.819688        0.819682        0.819726        0.818549        0.819363        0.819181        0.818999        0.818999        0.818999        0.818999        0.817906        0.817725        0.817543        0.817362        0.81799         0.81801         0.816955        0.818052        0.817018        0.817204        0.81667         0.816496        0.817156        0.817188        0.817299        0.817251        0.817289        0.817273        0.817257        0.81724         0.81722         0.817205        0.81719         0.817175        0.816695        0.816613        0.816819        0.816451        0.81682         0.817001        0.816797        0.816786        0.816896        0.8174          0.816896        0.816897        0.817067        0.816392        0.816997        0.816962        0.8164          0.817368        0.817252        0.816068        0.817019        0.817022        0.816381        0.817027        0.816237        0.816121        0.816005        0.815888        0.815461        0.815389        0.815318        0.815582        0.815515        0.815469        0.815423        0.815377        0.814915        0.814848        0.815249        0.814714        0.815261        0.815293        0.815325        0.815357        0.815409        0.815165        0.81517         0.815496        0.815525        0.815545        0.815566        0.815587        0.815282        0.815311        0.81547         0.815368        0.815457        0.815488        0.815705        0.81555         0.814908        0.815656        0.814992        0.815644        0.81572         0.815054        0.81568         0.81566         0.8152          0.815682        0.815723        0.815765        0.815252        0.815232        0.815212        0.815192        0.815196        0.815209        0.815222        0.815084        0.815095        0.815066        0.815704        0.815008        0.815384        0.815395        0.815406        0.814671        0.81399         0.81383         0.814418        0.815286        0.814668        0.814822        0.814976        0.81513         0.81529         0.81569         0.81547         0.81594         0.815649        0.815646        0.815643        0.81564         0.8161          0.816189        0.816279        0.816368        0.816157        0.815747        0.816142        0.815695        0.816046        0.816255        0.816211        0.816253        0.816181        0.816174        0.815934        0.81616         0.815921        0.815897        0.815872        0.815847        0.816146        0.816017        0.816383        0.816005        0.8163          0.816365        0.816429        0.816494        0.816144        0.815957        0.815915        0.815874        0.816571        0.816655        0.816738        0.816822        0.816772        0.8168          0.816827        0.816855        0.816284
