67.9157         342.348         2568.39         
85.6943         349.084         2618.93         
109.749         375.061         2813.81         
127.395         374.98          2813.21         
145.063         375.019         2813.5          
162.735         375.025         2813.55         
180.378         374.914         2812.71         
198.062         374.959         2813.05         
215.897         375.238         2815.15         
233.606         375.294         2815.56         
251.36          375.398         2816.35         
269.12          375.511         2817.19         
286.674         375.308         2815.67         
304.229         375.138         2814.4          
321.807         375.024         2813.54         
339.424         375.008         2813.42         
357.028         374.913         2812.7          
374.665         374.881         2812.46         
392.263         374.782         2811.72         
409.915         374.775         2811.67         
427.728         374.9           2812.61         
445.252         374.792         2811.79         
462.835         374.72          2811.25         
480.666         374.85          2812.23         
498.407         374.907         2812.66         
516.243         375.037         2813.63         
533.988         375.074         2813.91         
551.496         374.963         2813.08         
569.076         374.949         2812.98         
586.903         375.035         2813.62         
604.31          374.847         2812.21         
581.748         339.741         2548.84         
580.229         340.041         2551.08         
592.973         338.172         2537.07         
606.209         336.67          2525.79         
621.096         336.194         2522.22         
620.88          324.477         2434.32         
626.705         322.719         2421.13         
636.573         320.038         2401.01         
647.361         317.868         2384.73         
677.212         308.773         2316.51         
668.516         313.774         2354.02         
674.8           309.913         2325.06         
683.046         307.046         2303.54         
691.735         304.478         2284.28         
740.283         303.381         2276.05         
885.201         374.028         2806.06         
735.386         304.762         2286.41         
744.08          302.443         2269.02         
767.795         288.508         2164.47         
754.141         295.216         2214.8          
756.797         290.884         2182.29         
764.754         288.712         2166            
777.302         288.314         2163.01         
791.378         288.494         2164.36         
808.965         289.929         2175.13         
1060.67         373.814         2804.46         
1078.79         373.991         2805.79         
1096.63         374.072         2806.4          
1113.76         373.891         2805.04         
1131.18         373.828         2804.56         
1148.83         373.819         2804.49         
1166.5          373.865         2804.84         
1183.67         373.708         2803.67         
-2157.02        869.208         6227.57         
-2117.71        869.208         6227.57         
-2078.39        869.208         6227.57         
-2039.19        869.208         6227.57         
-1999.94        869.208         6227.57         
-1960.8         869.208         6227.57         
-734.126        381.141         2730.74         
-717.39         381.391         2732.53         
-700.697        381.68          2734.6          
-683.864        381.876         2736.01         
-666.979        382.038         2737.17         
-649.596        381.925         2736.36         
-632.772        382.148         2737.96         
-616.292        382.603         2741.21         
-599.208        382.659         2741.62         
-582.195        382.833         2742.86         
-565.34         383.074         2744.59         
-548.219        383.156         2745.18         
-531.236        383.352         2746.58         
-514.21         383.523         2747.8          
-497.123        383.682         2748.95         
-479.881        383.672         2748.88         
-463.096        384.084         2751.83         
-445.931        384.185         2752.55         
-428.849        384.367         2753.85         
-411.664        384.469         2754.59         
-395.087        385.137         2759.37         
-353.878        368.99          2643.69         
-343.652        367.246         2631.18         
-326.1          366.142         2623.28         
-309.103        365.505         2618.72         
-292.279        365.039         2615.38         
-275.437        364.481         2611.37         
-258.597        363.859         2606.92         
-241.748        363.169         2601.98         
-225.008        362.544         2597.5          
-208.528        362.246         2595.37         
-192.65         363.013         2600.86         
-177.273        364.658         2612.65         
-170.007        385.831         2764.34         
-152.68         385.939         2765.12         
-135.32         385.953         2765.22         
-118.056        386.266         2767.46         
-100.593        386.216         2767.1          
-83.2472        386.122         2766.43         
-66.0092        386.539         2769.41         
-48.4997        386.51          2769.21         
-31.1456        386.343         2768.01         
-13.6976        386.245         2767.31         
3.60234         386.396         2768.39         
21.0678         386.459         2768.84         
52.0095         352.624         2526.43         
50.9245         352.703         2526.99         
67.4541         356.08          2551.19         
85.9969         366.836         2628.25         
108.059         386.704         2770.6          
125.475         386.752         2770.94         
142.815         386.721         2770.72         
160.133         386.515         2769.24         
177.68          386.753         2770.95         
195.114         386.798         2771.27         
212.562         386.86          2771.71         
230.119         387.132         2773.66         
247.638         387.291         2774.8          
265.105         387.347         2775.21         
282.441         387.19          2774.08         
299.711         386.992         2772.66         
317.004         386.848         2771.63         
334.212         386.633         2770.09         
351.599         386.604         2769.88         
368.794         386.372         2768.22         
386.37          386.567         2769.62         
403.68          386.47          2768.92         
421.023         386.374         2768.24         
438.475         386.484         2769.02         
455.702         386.336         2767.96         
473.123         386.363         2768.16         
490.648         386.43          2768.63         
508.001         386.462         2768.86         
525.266         386.35          2768.06         
542.626         386.333         2767.94         
560.287         386.522         2769.29         
577.464         386.368         2768.19         
594.538         386.197         2766.96         
611.912         386.178         2766.83         
594.18          355.08          2544.02         
594.414         354.967         2543.21         
607.487         353.273         2531.08         
620.144         351.436         2517.91         
634.66          350.723         2512.81         
633.843         338.436         2424.77         
639.544         336.691         2412.27         
649.313         333.91          2392.35         
659.125         331.298         2373.63         
668.578         328.63          2354.52         
677.222         325.643         2333.12         
686.159         322.961         2313.9          
695.113         320.398         2295.54         
854.938         386.04          2765.84         
872.126         385.963         2765.29         
889.443         385.948         2765.18         
760.229         306.688         2197.31         
767.52          303.253         2172.7          
757.805         310.62          2225.48         
760.635         306.135         2193.35         
767.231         303.3           2173.04         
779.306         302.684         2168.63         
793.559         302.918         2170.3          
810.277         304.072         2178.57         
1045.04         385.679         2763.25         
1062.22         385.598         2762.67         
1078.94         385.381         2761.12         
1096.26         385.366         2761.01         
1113.51         385.362         2760.98         
1130.88         385.333         2760.77         
1148.3          385.367         2761.02         
1166.24         385.555         2762.36         
-2163.97        908.327         6227.57         
-2124.67        908.327         6227.57         
-2085.31        908.327         6227.57         
-2046.1         908.327         6227.57         
-2006.96        908.327         6227.57         
-1967.64        908.327         6227.57         
-722.524        392.013         2687.67         
-706.094        392.312         2689.72         
-689.414        392.439         2690.6          
-672.897        392.653         2692.06         
-656.312        392.822         2693.22         
-639.671        393.028         2694.63         
-623.067        393.238         2696.07         
-606.434        393.383         2697.07         
-589.808        393.646         2698.87         
-572.971        393.72          2699.38         
-555.747        393.513         2697.96         
-539.449        394.004         2701.33         
-522.798        394.245         2702.98         
-506            394.385         2703.94         
-489.316        394.626         2705.59         
-472.535        394.797         2706.76         
-455.88         395.098         2708.82         
-439.022        395.239         2709.79         
-422.257        395.507         2711.63         
-405.421        395.681         2712.82         
-388.443        395.738         2713.21         
-371.565        395.914         2714.42         
-354.614        396.032         2715.23         
-337.484        395.961         2714.75         
-319.742        395.277         2710.06         
-295.14         385.275         2641.48         
-910.665        901.022         6177.48         
-260.256        382.668         2623.6          
-243.63         382.71          2623.89         
-128.016        397.233         2723.47         
-218.479        396.638         2719.38         
-201.467        396.78          2720.36         
-184.398        396.796         2720.47         
-167.353        396.909         2721.24         
-150.189        396.942         2721.47         
-133.235        397.085         2722.45         
-116.182        397.279         2723.78         
-99.0734        397.291         2723.86         
-81.9757        397.326         2724.11         
-64.8898        397.426         2724.79         
-47.8033        397.649         2726.32         
-30.735         397.639         2726.25         
-13.469         397.752         2727.03         
3.56108         397.801         2727.36         
20.7229         397.774         2727.17         
49.461          368.104         2523.76         
50.8375         368.005         2523.08         
72.1329         398.192         2730.04         
86.7061         386.501         2649.89         
106.396         397.589         2725.91         
123.542         397.938         2728.3          
140.726         397.925         2728.21         
157.903         398.104         2729.44         
174.952         397.929         2728.23         
192.243         398.155         2729.79         
209.442         398.335         2731.02         
226.591         398.32          2730.92         
243.862         398.536         2732.4          
261.039         398.541         2732.43         
278.18          398.586         2732.74         
295.25          398.386         2731.37         
312.347         398.301         2730.79         
329.368         398.164         2729.85         
346.363         397.988         2728.64         
363.36          397.824         2727.52         
380.417         397.738         2726.93         
397.525         397.704         2726.7          
414.557         397.615         2726.08         
431.652         397.602         2725.99         
448.725         397.557         2725.69         
465.862         397.567         2725.75         
483.072         397.638         2726.24         
500.213         397.675         2726.49         
517.271         397.589         2725.9          
534.483         397.63          2726.19         
551.631         397.675         2726.5          
568.543         397.525         2725.47         
585.713         397.555         2725.67         
602.692         397.463         2725.04         
620.233         397.771         2727.15         
596.205         372.074         2550.98         
608.48          369.784         2535.27         
621.527         368.092         2523.67         
633.825         366.018         2509.45         
648.317         365.318         2504.65         
661.793         364.095         2496.27         
652.508         350.668         2404.21         
661.926         347.658         2383.57         
671.253         344.773         2363.8          
680.536         341.985         2344.68         
689.683         339.218         2325.71         
698.62          336.501         2307.08         
842.812         397.579         2725.83         
858.366         396.941         2721.46         
876.318         397.346         2724.24         
763.821         323.864         2220.44         
768.693         318.837         2185.98         
761.47          326.199         2236.45         
764.665         321.648         2205.24         
770.198         318.18          2181.47         
781.961         317.382         2176            
795.303         317.249         2175.09         
812.643         318.718         2185.16         
1029.22         396.919         2721.31         
1046.11         396.841         2720.77         
1062.96         396.733         2720.04         
1079.71         396.612         2719.21         
1097.14         396.753         2720.17         
1113.97         396.668         2719.59         
1131.08         396.655         2719.5          
1148.06         396.655         2719.5          
-2171.05        947.445         6227.57         
-2131.75        947.445         6227.57         
-2092.42        947.445         6227.57         
-2053.32        947.445         6227.57         
-2013.9         947.445         6227.57         
-1974.68        947.445         6227.57         
-711.143        402.495         2645.6          
-694.889        402.711         2647.02         
-678.9          403.07          2649.38         
-662.312        403.093         2649.54         
-645.993        403.333         2651.11         
-629.691        403.56          2652.6          
-613.28         403.73          2653.72         
-596.977        403.94          2655.1          
-580.692        404.233         2657.03         
-564.11         404.299         2657.46         
-547.589        404.456         2658.49         
-531.238        404.661         2659.84         
-514.616        404.776         2660.59         
-498.046        404.892         2661.36         
-481.673        405.2           2663.39         
-465.153        405.365         2664.47         
-448.669        405.584         2665.9          
-432.087        405.76          2667.06         
-415.58         405.997         2668.62         
-399.026        406.234         2670.18         
-382.5          406.483         2671.82         
-365.727        406.5           2671.93         
-349.192        406.801         2673.91         
-332.423        406.807         2673.95         
-315.664        406.849         2674.22         
-299.07         407.073         2675.69         
-282.117        406.991         2675.15         
-265.479        407.224         2676.68         
-248.759        407.352         2677.53         
-231.958        407.382         2677.72         
-215.22         407.549         2678.82         
-198.416        407.585         2679.06         
-181.509        407.41          2677.91         
-164.831        407.777         2680.32         
-147.97         407.713         2679.9          
-131.126        407.683         2679.7          
-114.413        408.003         2681.81         
-97.4858        408.004         2681.81         
-80.7934        408.262         2683.51         
-63.9264        408.388         2684.34         
-47.0985        408.521         2685.21         
-30.206         408.622         2685.88         
-13.3386        408.521         2685.21         
3.49324         408.78          2686.92         
20.403          408.801         2687.05         
46.8751         383.595         2521.37         
50.7785         383.247         2519.09         
71.0435         408.805         2687.08         
87.3414         406.271         2670.42         
104.24          406.215         2670.06         
121.718         408.924         2687.86         
138.59          408.925         2687.87         
155.468         408.862         2687.45         
172.433         409.064         2688.78         
189.275         409.01          2688.43         
206.246         409.176         2689.52         
223.18          409.249         2690            
240.036         409.186         2689.58         
257.061         409.41          2691.05         
273.861         409.218         2689.79         
290.806         409.281         2690.21         
307.71          409.303         2690.36         
324.412         409.046         2688.67         
341.272         409.018         2688.48         
357.991         408.811         2687.12         
374.814         408.751         2686.72         
391.697         408.777         2686.89         
408.435         408.625         2685.9          
425.2           408.512         2685.15         
442.042         408.493         2685.03         
458.926         408.52          2685.2          
475.777         408.466         2684.85         
492.652         408.498         2685.06         
509.663         408.63          2685.93         
526.438         408.539         2685.33         
543.406         408.62          2685.86         
560.158         408.528         2685.26         
576.949         408.475         2684.91         
593.724         408.413         2684.5          
610.371         408.252         2683.45         
627.297         408.258         2683.48         
610.376         386.918         2543.21         
622.3           384.407         2526.71         
634.906         382.442         2513.79         
647.138         380.34          2499.98         
661.066         379.321         2493.28         
674.534         378.093         2485.21         
854.204         408.156         2682.81         
674.678         361.457         2375.86         
683.622         358.32          2355.24         
773.707         333.004         2188.84         
739.341         359.805         2365            
730.965         359.775         2364.8          
746.442         360.104         2366.96         
863.252         408.293         2683.71         
765.903         340.408         2237.51         
770.988         335.256         2203.64         
764.718         341.664         2245.76         
768.166         337.016         2215.21         
773.459         333.288         2190.71         
784.652         332.186         2183.46         
798.239         332.132         2183.1          
815.398         333.546         2192.4          
1014            407.887         2681.05         
1031.06         407.975         2681.63         
1047.71         407.903         2681.15         
1064.34         407.817         2680.59         
1080.62         407.574         2678.99         
1097.6          407.666         2679.59         
1114.14         407.584         2679.06         
1131.46         407.733         2680.03         
-2178.56        986.564         6227.57         
-2138.95        986.564         6227.57         
-2099.57        986.564         6227.57         
-2060.53        986.564         6227.57         
-2021.11        986.564         6227.57         
-1981.86        986.564         6227.57         
-700.213        412.683         2605.01         
-684.214        412.898         2606.37         
-668.496        413.291         2608.85         
-652.251        413.389         2609.47         
-636.083        413.539         2610.41         
-620.202        413.882         2612.58         
-603.943        413.965         2613.1          
-587.757        414.127         2614.13         
-571.67         414.4           2615.85         
-555.622        414.676         2617.6          
-539.35         414.805         2618.41         
-523.119        414.954         2619.35         
-506.888        415.168         2620.7          
-490.586        415.296         2621.5          
-474.303        415.47          2622.6          
-458.292        415.9           2625.32         
-441.933        415.988         2625.88         
-425.522        416.065         2626.36         
-409.323        416.355         2628.19         
-392.991        416.574         2629.57         
-376.626        416.765         2630.78         
-360.232        416.906         2631.67         
-343.713        416.939         2631.88         
-327.296        417.089         2632.83         
-310.936        417.323         2634.3          
-294.432        417.37          2634.6          
-277.895        417.413         2634.87         
-261.487        417.627         2636.22         
-244.975        417.718         2636.8          
-228.448        417.781         2637.19         
-211.909        417.836         2637.54         
-195.437        418.041         2638.83         
-178.918        418.157         2639.57         
-162.382        418.299         2640.46         
-145.788        418.252         2640.17         
-129.222        418.374         2640.93         
-112.687        418.527         2641.9          
-96.0182        418.398         2641.09         
-79.5646        418.837         2643.86         
-62.9663        418.892         2644.2          
-46.383         419.097         2645.5          
-29.7706        419.171         2645.96         
-13.1531        419.298         2646.77         
3.40916         419.097         2645.5          
20.0916         419.321         2646.92         
44.2583         399.163         2519.67         
50.695          398.54          2515.74         
69.9793         419.576         2648.52         
86.6354         419.512         2648.12         
103.263         419.459         2647.79         
119.866         419.422         2647.55         
136.53          419.403         2647.43         
153.185         419.593         2648.63         
169.852         419.603         2648.69         
186.458         419.621         2648.81         
203.165         419.703         2649.32         
219.84          419.779         2649.8          
236.61          419.96          2650.94         
253.24          419.917         2650.67         
269.89          419.92          2650.69         
286.498         419.865         2650.35         
303.121         419.837         2650.17         
319.775         419.858         2650.31         
336.369         419.782         2649.82         
353.012         419.773         2649.77         
369.626         419.74          2649.56         
386.288         419.76          2649.68         
402.726         419.533         2648.25         
419.361         419.542         2648.31         
435.853         419.41          2647.47         
452.395         419.323         2646.92         
469.045         419.349         2647.09         
485.529         419.222         2646.29         
502.273         419.327         2646.95         
518.686         419.11          2645.58         
535.238         419.107         2645.56         
551.886         419.113         2645.6          
568.467         419.089         2645.45         
584.74          418.849         2643.93         
601.706         419.053         2645.22         
617.997         418.849         2643.93         
635.002         419.146         2645.81         
623.946         401.324         2533.31         
635.698         398.721         2516.88         
648.204         396.707         2504.17         
660.219         394.502         2490.24         
673.405         393.05          2481.08         
685.794         391.222         2469.54         
698.435         389.618         2459.42         
715.203         380.478         2401.72         
729.213         380.033         2398.91         
726.564         380.09          2399.27         
748.363         372.62          2352.12         
742.144         372.774         2353.09         
756.947         372.788         2353.18         
767.89          357.208         2254.83         
767.816         363.834         2296.66         
767.727         357.208         2254.83         
771.468         352.457         2224.84         
776.791         348.537         2200.1          
788.201         347.472         2193.38         
801.971         347.466         2193.34         
820.15          349.314         2205.01         
999.523         418.692         2642.94         
1016.02         418.653         2642.7          
1032.53         418.588         2642.29         
1049            418.532         2641.93         
1065.53         418.515         2641.83         
1081.73         418.364         2640.87         
1098.4          418.385         2641            
1114.22         418.096         2639.18         
-2185.95        1025.68         6227.57         
-2146.61        1025.68         6227.57         
-2107.22        1025.68         6227.57         
-2068.25        1025.68         6227.57         
-2028.73        1025.68         6227.57         
-1989           1025.68         6227.57         
-1949.42        1025.68         6227.57         
-673.924        422.79          2567.03         
-658.088        422.962         2568.07         
-642.293        423.191         2569.46         
-626.606        423.511         2571.4          
-610.688        423.668         2572.35         
-594.789        423.858         2573.51         
-579.04         424.168         2575.39         
-563.059        424.333         2576.39         
-547.251        424.633         2578.21         
-531.299        424.816         2579.33         
-515.375        425.057         2580.79         
-499.154        425.022         2580.57         
-483.437        425.489         2583.41         
-467.393        425.638         2584.32         
-451.278        425.743         2584.95         
-435.16         425.883         2585.81         
-419.113        426.073         2586.96         
-403.058        426.275         2588.18         
-386.987        426.486         2589.46         
-370.931        426.648         2590.45         
-354.857        426.954         2592.31         
-338.537        426.918         2592.09         
-322.295        427             2592.58         
-306.218        427.298         2594.4          
-290.061        427.481         2595.51         
-273.811        427.568         2596.03         
-257.499        427.575         2596.08         
-241.275        427.707         2596.88         
-225.051        427.889         2597.99         
-208.793        428.009         2598.71         
-192.489        428.083         2599.16         
-176.187        428.135         2599.48         
-159.91         428.212         2599.94         
-143.634        428.424         2601.23         
-127.324        428.522         2601.83         
-111.044        428.773         2603.35         
-94.7063        428.868         2603.93         
-78.3594        428.902         2604.13         
-62.0038        428.944         2604.39         
-45.6602        429.04          2604.97         
-29.3136        429.29          2606.49         
-12.9695        429.434         2607.37         
3.40411         429.432         2607.35         
19.7785         429.456         2607.5          
36.1098         429.903         2610.21         
50.6281         413.713         2511.91         
68.9337         429.668         2608.79         
85.2932         429.371         2606.98         
101.761         429.721         2609.1          
118.084         429.582         2608.26         
134.443         429.469         2607.58         
150.833         429.48          2607.64         
167.219         429.465         2607.55         
183.761         429.813         2609.66         
200.17          429.893         2610.15         
216.691         430.091         2611.35         
233.078         430.103         2611.42         
249.535         430.208         2612.06         
265.979         430.267         2612.42         
282.351         430.243         2612.28         
298.781         430.237         2612.24         
315.228         430.356         2612.96         
331.684         430.352         2612.94         
348.1           430.346         2612.9          
364.529         430.365         2613.02         
380.958         430.392         2613.18         
397.394         430.405         2613.26         
413.888         430.489         2613.77         
430.158         430.352         2612.94         
446.302         430.108         2611.46         
462.691         430.068         2611.21         
478.913         429.9           2610.19         
495.068         429.692         2608.93         
511.246         429.517         2607.87         
527.637         429.52          2607.89         
543.861         429.403         2607.18         
560.117         429.314         2606.64         
576.345         429.196         2605.92         
592.813         429.287         2606.47         
609.104         429.207         2605.98         
625.649         429.329         2606.73         
642.173         429.418         2607.27         
637.038         415.424         2522.3          
648.966         412.939         2507.21         
660.895         410.536         2492.62         
672.679         408.2           2478.44         
684.372         405.9           2464.48         
697.248         404.384         2455.27         
708.706         402.145         2441.68         
720.38          400.099         2429.25         
725.242         394.4           2394.65         
738.968         393.738         2390.63         
748.672         391.012         2374.08         
752.381         385.24          2339.03         
762.85          383.103         2326.06         
759.756         373.648         2268.66         
770.119         372.518         2261.79         
774.08          367.632         2232.13         
780.63          364.165         2211.08         
792.181         363.07          2204.43         
806.822         363.425         2206.58         
826.654         366.072         2222.65         
985.136         429.011         2604.8          
1001.52         429.013         2604.81         
1017.27         428.75          2603.21         
1034.32         429.041         2604.98         
1049.92         428.699         2602.9          
1066.51         428.833         2603.71         
1082.01         428.481         2601.58         
1098.91         428.704         2602.93         
-2193.19        1064.8          6227.57         
-2153.83        1064.8          6227.57         
-2114.43        1064.8          6227.57         
-2075.24        1064.8          6227.57         
-2035.82        1064.8          6227.57         
-1996.54        1064.8          6227.57         
-1957           1064.8          6227.57         
-663.312        431.979         2526.46         
-647.902        432.341         2528.58         
-632.678        432.786         2531.18         
-617.206        433.078         2532.89         
-601.778        433.413         2534.85         
-586.007        433.529         2535.52         
-570.458        433.821         2537.23         
-554.835        434.084         2538.77         
-539.103        434.269         2539.85         
-523.352        434.414         2540.7          
-507.588        434.572         2541.62         
-491.782        434.726         2542.52         
-476.141        435.03          2544.3          
-460.354        435.226         2545.45         
-444.446        435.291         2545.83         
-428.593        435.43          2546.64         
-412.897        435.76          2548.57         
-397.014        435.923         2549.53         
-381.18         436.136         2550.77         
-365.345        436.333         2551.92         
-349.4          436.411         2552.38         
-333.515        436.609         2553.54         
-317.616        436.808         2554.7          
-301.75         437.093         2556.37         
-285.747        437.176         2556.85         
-269.679        437.169         2556.81         
-253.734        437.377         2558.03         
-237.724        437.509         2558.8          
-221.684        437.573         2559.18         
-205.574        437.504         2558.77         
-189.557        437.611         2559.4          
-173.532        437.767         2560.31         
-157.525        437.958         2561.43         
-141.356        437.92          2561.2          
-125.465        438.374         2563.86         
-109.396        438.462         2564.37         
-93.2945        438.592         2565.14         
-77.2253        438.797         2566.33         
-61.1345        438.963         2567.31         
-45.0084        438.965         2567.32         
-28.8847        439.125         2568.26         
-12.7334        439.341         2569.52         
3.36218         439.318         2569.38         
19.5136         439.324         2569.42         
35.6466         439.438         2570.08         
50.5674         428.887         2508.37         
66.3961         429.383         2511.27         
84.1014         439.524         2570.59         
100.255         439.549         2570.73         
116.386         439.575         2570.89         
132.508         439.395         2569.83         
148.7           439.49          2570.39         
164.751         439.283         2569.18         
180.978         439.516         2570.54         
197.166         439.564         2570.82         
213.417         439.779         2572.08         
229.705         440.088         2573.89         
245.895         440.097         2573.94         
262.264         440.339         2575.35         
278.418         440.411         2575.78         
294.547         440.308         2575.17         
310.707         440.283         2575.02         
326.933         440.347         2575.4          
343.103         440.341         2575.36         
359.335         440.427         2575.87         
375.542         440.454         2576.03         
391.793         440.517         2576.4          
407.774         440.273         2574.97         
424.116         440.399         2575.71         
440.351         440.525         2576.44         
456.288         440.29          2575.07         
472.31          440.123         2574.09         
488.23          439.924         2572.93         
504.153         439.695         2571.59         
520.219         439.606         2571.07         
536.141         439.448         2570.14         
552.215         439.396         2569.84         
568.258         439.312         2569.35         
584.343         439.271         2569.11         
600.537         439.35          2569.57         
616.736         439.353         2569.59         
633.007         439.446         2570.13         
649.06          439.394         2569.83         
650.374         429.67          2512.95         
661.792         426.794         2496.13         
672.996         423.972         2479.63         
684.881         421.713         2466.42         
695.887         419.007         2450.59         
706.929         416.435         2435.55         
718.371         414.199         2422.47         
728.967         411.593         2407.23         
737.849         408.145         2387.07         
747.254         405.108         2369.3          
755.139         401.391         2347.56         
759.857         396.222         2317.33         
765.767         391.743         2291.14         
771.438         387.369         2265.55         
777.332         383.274         2241.61         
784.786         380.04          2222.69         
797.413         379.407         2218.99         
811.938         379.666         2220.5          
954.943         438.982         2567.42         
970.579         438.78          2566.24         
986.572         438.723         2565.9          
1002.61         438.693         2565.73         
1019.24         438.917         2567.04         
1034.67         438.617         2565.28         
1050.77         438.618         2565.29         
1066.64         438.513         2564.67         
1082.45         438.423         2564.15         
-2200.36        1103.92         6227.57         
-2160.96        1103.92         6227.57         
-2121.62        1103.92         6227.57         
-2082.26        1103.92         6227.57         
-2043.1         1103.92         6227.57         
-2003.62        1103.92         6227.57         
-1964.4         1103.92         6227.57         
-653.5          441.253         2489.25         
-638.297        441.524         2490.78         
-623.094        441.853         2492.63         
-607.796        442.139         2494.25         
-592.449        442.36          2495.49         
-577.132        442.621         2496.97         
-561.94         443.052         2499.4          
-546.5          443.27          2500.63         
-531.177        443.596         2502.47         
-515.528        443.665         2502.85         
-499.991        443.839         2503.84         
-484.603        444.127         2505.46         
-468.963        444.225         2506.02         
-453.509        444.475         2507.43         
-437.921        444.664         2508.49         
-422.257        444.737         2508.9          
-406.823        445.131         2511.13         
-391.173        445.287         2512.01         
-375.452        445.349         2512.36         
-359.803        445.508         2513.25         
-344.193        445.733         2514.52         
-328.616        446.02          2516.14         
-312.904        446.174         2517.01         
-297.171        446.249         2517.43         
-281.455        446.422         2518.41         
-265.734        446.578         2519.29         
-249.932        446.622         2519.54         
-234.157        446.755         2520.29         
-218.405        446.959         2521.44         
-202.615        447.053         2521.97         
-186.818        447.134         2522.43         
-171.007        447.237         2523.01         
-155.282        447.562         2524.84         
-139.461        447.681         2525.51         
-123.641        447.895         2526.72         
-107.798        448             2527.31         
-91.9599        448.148         2528.15         
-76.11          448.369         2529.39         
-60.2637        448.651         2530.98         
-44.3917        448.84          2532.05         
-28.4829        448.856         2532.14         
-12.5712        448.879         2532.27         
3.28526         449.233         2534.27         
19.2206         449.081         2533.41         
34.953          446.683         2519.88         
50.5042         444.068         2505.13         
66.5255         446.876         2520.97         
82.8606         448.9           2532.39         
98.7687         449.25          2534.36         
114.724         449.02          2533.06         
130.636         449.076         2533.38         
146.571         449.132         2533.7          
162.518         449.244         2534.33         
178.387         449.142         2533.75         
194.304         449.161         2533.86         
210.366         449.445         2535.46         
226.434         449.755         2537.21         
242.484         449.926         2538.18         
258.376         449.842         2537.7          
274.383         449.932         2538.21         
290.308         449.912         2538.1          
306.308         450.008         2538.64         
322.265         450.02          2538.71         
338.198         450.004         2538.61         
354.184         450.033         2538.78         
370.032         449.912         2538.1          
386.1           450.012         2538.66         
401.9           449.928         2538.19         
417.887         449.955         2538.34         
433.88          450.014         2538.67         
449.676         449.846         2537.72         
465.402         449.647         2536.6          
481.517         449.818         2537.56         
497.257         449.625         2536.48         
513.027         449.473         2535.62         
528.793         449.361         2534.99         
544.743         449.358         2534.97         
560.541         449.267         2534.46         
576.279         449.125         2533.66         
592.286         449.189         2534.02         
608.448         449.371         2535.04         
624.307         449.336         2534.85         
640.474         449.512         2535.84         
656.007         449.242         2534.32         
663.347         441.311         2489.57         
674.298         440.382         2484.34         
684.897         437.218         2466.49         
696.19          434.596         2451.7          
707.111         431.828         2436.08         
717.258         428.768         2418.82         
727.038         425.594         2400.91         
736.249         422.245         2382.02         
744.978         418.713         2362.09         
753.187         415.07          2341.54         
760.569         411.099         2319.14         
767.283         406.965         2295.82         
773.286         402.552         2270.92         
780.117         398.792         2249.71         
789.698         396.477         2236.66         
802.633         395.934         2233.59         
821.439         398.24          2246.6          
941.34          448.651         2530.98         
957.013         448.541         2530.36         
972.984         448.563         2530.49         
988.592         448.463         2529.92         
1004.51         448.46          2529.91         
1020.17         448.361         2529.35         
1035.88         448.286         2528.93         
1051.2          448.041         2527.54         
1067.25         448.092         2527.83         
-2207.62        1143.04         6227.57         
-2168.27        1143.04         6227.57         
-2128.9         1143.04         6227.57         
-2089.58        1143.04         6227.57         
-2050.43        1143.04         6227.57         
-2011.01        1143.04         6227.57         
-1971.75        1143.04         6227.57         
-643.679        449.991         2451.67         
-628.686        450.315         2453.43         
-613.585        450.542         2454.67         
-598.499        450.748         2455.79         
-583.592        451.235         2458.44         
-568.536        451.507         2459.92         
-553.434        451.77          2461.35         
-538.235        451.993         2462.57         
-523.016        452.216         2463.79         
-507.775        452.44          2465.01         
-492.752        452.89          2467.46         
-477.541        453.178         2469.03         
-462.17         453.288         2469.63         
-446.741        453.369         2470.07         
-431.38         453.557         2471.09         
-416.211        453.915         2473.05         
-400.686        453.936         2473.16         
-385.358        454.198         2474.59         
-370.011        454.422         2475.81         
-354.527        454.49          2476.18         
-339.109        454.716         2477.41         
-323.751        455.01          2479.01         
-308.296        455.182         2479.95         
-292.806        455.29          2480.53         
-277.389        455.552         2481.96         
-261.875        455.682         2482.67         
-246.357        455.865         2483.67         
-230.801        455.945         2484.1          
-215.248        456.091         2484.9          
-199.707        456.217         2485.59         
-184.149        456.351         2486.31         
-168.589        456.542         2487.36         
-153.03         456.746         2488.47         
-137.446        456.883         2489.21         
-121.836        456.988         2489.79         
-106.258        457.177         2490.81         
-90.6667        457.473         2492.43         
-74.9808        457.408         2492.08         
-59.361         457.701         2493.67         
-43.7448        457.942         2494.98         
-28.0739        458.059         2495.62         
-12.3922        458.134         2496.03         
3.28351         458.357         2497.24         
18.982          458.528         2498.18         
34.6547         458.496         2498            
50.3325         458.503         2498.04         
66.0559         458.576         2498.44         
81.7578         458.597         2498.55         
97.4148         458.459         2497.8          
113.097         458.436         2497.68         
128.795         458.448         2497.74         
144.444         458.221         2496.51         
160.187         458.508         2498.07         
175.869         458.478         2497.91         
191.569         458.498         2498.01         
207.432         458.859         2499.98         
223.258         459.097         2501.28         
238.93          459.026         2500.89         
254.668         459.084         2501.21         
270.488         459.264         2502.19         
286.194         459.259         2502.16         
302.009         459.428         2503.08         
317.754         459.43          2503.09         
333.461         459.427         2503.08         
349.219         459.467         2503.29         
364.829         459.288         2502.32         
380.712         459.518         2503.57         
396.405         459.498         2503.46         
412.03          459.355         2502.68         
427.795         459.421         2503.04         
443.359         459.249         2502.11         
458.958         459.123         2501.42         
474.678         459.134         2501.48         
489.991         458.754         2499.41         
506.082         459.118         2501.39         
521.447         458.805         2499.69         
537.259         458.925         2500.34         
553.239         459.125         2501.43         
568.91          459.094         2501.26         
584.439         458.964         2500.55         
599.86          458.694         2499.08         
615.571         458.757         2499.42         
631.219         458.703         2499.13         
647.017         458.795         2499.63         
662.501         458.663         2498.91         
678.326         458.701         2499.12         
686.654         453.878         2472.84         
697.239         450.66          2455.31         
707.169         447.166         2436.28         
