0.351439        0.352829        0.352542        0.352256        0.351969        0.353974        0.355886        -0.230896       0.353155        0.355067        0.354799        0.356002        0.356402        0.356135        0.355895        0.355654        0.355414        0.357096        0.358664        0.35844         0.356425        0.357992        0.359542        0.359321        0.359099        0.358878        0.358537        0.358195        0.338352        0.360242        0.359983        0.359724        0.359465        0.361279        0.337362        0.361695        0.361626        0.361556        0.358915        0.362311        0.362688        0.360047        0.629603        0.354078        -0.0900118      0               -0.0318776      -0.0637553      -0.0956329      0.127511        0.127339        0.128539        0.128368        0.128196        0.129494        0.127826        0.126666        0.128938        0.129171        0.128622        0.128823        0.129569        0.13077         0.130598        0.129461        0.130255        0.130355        0.130341        0.130327        0.130312        0.129304        0.129184        0.129065        0.366421        0.365947        0.365473        0.36879         0.368316        0.366912        0.367057        0.0679543       0.128027        0.130275        0.725321        0.127063        0.129312        0.131393        0.128717        0.12842         0.130501        0.130384        0.128361        0.128235        0.130968        0.130018        0.129908        0.129799        0.131313        0.13118         0.130987        0.130793        0.131951        0.13034         0.13008         0.12982         0.348901        0.351089        0.350777        0.350464        0.350152        0.348936        0.0281652       0.560563        0.135494        0.613831        0.0296645       0.71976         0.13705         0.135362        0.137087        0.136855        0.137877        0.136461        0.136299        0.136138        0.138569        0.138402        0.13956         0.136724        0.13923         0.139193        0.138043        0.138114        0.139209        0.142898        0.146587        0.120763        0.124452        0               0.186678        0.217791        0               0.248998        0.213427        0.177855        0.142284        0.142066        0.140877        0.141628        0.14316         0.141929        0.142863        0.142714        0.143753        0.145159        0.143878        0.144757        0.144556        0.144703        0.145666        0.145481        0.145296        0.146448        0.143837        0.144803        0.145954        0.144691        0.145578        0.14539         0.146707        0.146523        0.147811        0.146605        0.147443        0.147536        0.147055        0.148412        0.148218        0.149487        0.149306        0.149125        0.148943        0.186179        0.223415        0.260651        0
0.35528         0.355081        0.354795        0.354508        -0.116707       0.553162        0.359487        0.41258         0.412307        0.358667        0.3584          0.358133        0.357866        0.356922        0.347517        0.356441        0.358603        0.358363        0.353045        0.357915        0.359158        0.3514          0.352692        0.358491        0.355277        0.361333        0.364009        0.341148        0.341529        0.340609        0.34101         0.340979        0.340947        0.36425         0.364181        0.364585        0.364516        0.344011        0.341184        0.361664        0.343587        -0.441186       0.349948        0.542442        0.362951        0.255172        0.223294        0.0276326       0.716204        0.127661        0.12792         0.127318        0.127147        0.128321        0.128135        0.128378        0.129254        0.130315        0.129286        0.13            0.128595        0.131062        0.13089         0.130718        0.130547        0.130375        0.129391        0.130347        0.130438        -0.046228       0.129415        0.129296        0.129176        0.604154        0.544856        -0.165304       0.368983        0.36851         -0.111924       0.488654        0.367396        0.546161        0.0679718       0.665588        0.725301        0.127205        0.126842        0.129018        0.128721        0.131661        0.131545        0.128597        0.128471        0.131194        0.131108        0.129162        0.130936        0.131516        0.131356        0.131156        0.13228         0.13212         0.130509        0.0236452       0.457286        0.403048        0.511631        0.402423        0.350654        0.350342        0.404006        0.45767         0.349731        0.138789        0.1384          0.0298466       0.0828112       0.137708        0.135544        0.136819        0.13508         0.13678         0.137879        0.136456        0.136294        0.140056        0.137226        0.139726        0.136892        0.138067        0.139425        0.137444        0.139435        0.13944         0.14313         0.148186        0.150508        0.155565        -0.0933389      0               -0.0933389      0.284692        -0.0355711      -0.070895       0.177979        0.142408        0.142189        0.141001        0.141751        0.144463        0.143144        0.142996        0.14173         0.143869        0.14529         0.145089        0.144888        0.144688        0.144503        0.143286        0.14311         0.146748        0.145272        0.145108        0.146254        0.14609         0.145902        0.147228        0.147039        0.146851        0.148124        0.146933        0.147756        0.147572        0.147378        0.148756        0.146991        0.1498          0.148187        0.149437        0.147824        0.177701        0.155484        0.223546        0.200074        0.184923
0.358239        0.357333        0.357047        0.356761        -0.0575543      0.472279        -0.0567657      -0.112591       0.471459        0.362268        0.360657        0.358243        0.354495        0.351414        0.351653        0.357228        0.352131        0.360771        0.353987        0.348403        0.35289         0.352342        0.340268        0.34156         0.342853        0.343999        0.343945        0.343891        0.343984        0.343784        0.343753        0.343722        0.34369         0.343454        0.343304        0.343154        0.344366        0.367337        0.344075        0.343933        0.343792        0.460824        0.454802        0.544814        0.480329        0.255322        0.536242        0.191567        0.0771948       0.129131        0.126408        0.128788        0.126013        0.129941        0.129756        0.128509        0.12833         0.13043         0.129401        0.129227        0.129957        0.1302          0.129627        0.130838        0.129701        0.130495        0.129716        0.129488        0.130549        0.129646        0.129526        0.129407        0.129287        0.484457        0.483983        0.369651        0.426452        0.368703        0.367299        0.367444        0.54892         0.00855954      -0.051634       0.130556        0.665568        0.127506        0.127143        0.129319        0.126419        0.131888        0.131771        0.130739        0.128707        0.129608        0.130424        0.131248        0.131162        0.131719        0.131518        0.131325        0.131131        0.0250596       0.130678        0.0245402       0.511432        0.351782        0.456882        0.351157        0.350844        0.349012        0.349315        0.349618        0.349921        0.029151        0.138582        0.0300287       0.137804        0.137415        0.137632        0.1374          0.137168        0.136937        0.136775        0.136613        0.136451        0.137561        0.140057        0.139892        0.139727        0.139651        0.139567        0.137675        0.138446        0.139672        0.143361        0.147051        0.15074         0.186678        -0.0933389      0               -0.0622259      0               0.247885        0.212438        0.17699         0.143198        0.141334        0.142779        0.141875        0.144579        0.143278        0.143129        0.141864        0.143059        0.145421        0.14522         0.14502         0.146317        0.146132        0.143417        0.145762        0.146883        0.145412        0.145248        0.145083        0.146225        0.146037        0.147372        0.145661        0.148438        0.148254        0.146628        0.147886        0.146665        0.146492        0.147314        0.148712        0.149931        0.149749        0.149568        0.147975        0.148054        -0.171002       0.223677        0.170426        -0.0592946
0.330997        0.359586        0.3593          0.359013        0.358727        0.531431        0.531158        0.530885        0.530612        0.365868        0.365601        0.365334        0.365067        0.352201        0.35244         0.350288        0.357775        0.350766        0.361489        0.349669        0.353832        0.353284        0.366908        0.366687        0.366465        0.366244        0.346547        0.346493        0.368813        0.346527        0.368212        0.367953        0.367694        0.347706        0.346275        0.370365        0.369984        0.347106        0.348613        0.346823        0.348331        0.348189        -0.513451       -0.423439       0.637197        0.405692        -0.275293       0.191718        0.0773455       0.128367        0.126559        0.127971        0.127448        0.128569        0.129887        0.129701        0.129516        0.130545        0.129516        0.129342        0.130072        0.130321        0.13113         0.129571        0.129821        0.130615        0.129631        0.129608        0.130573        0.129757        0.0716887       0.129518        0.129398        0.0713292       0.545243        0.369845        0.426646        0.367348        0.428969        0.426404        0.549114        -0.111046       0.131178        0.00838021      0.130536        0.127807        0.127444        0.12962         0.129323        0.132114        0.131998        0.130975        0.130858        0.130737        0.130627        0.130517        0.132008        0.131881        0.131687        0.131494        0.1313          0.131106        0.130847        0.130587        0.130327        0.56628         0.512011        0.457741        -0.0846409      0.349202        -0.185014       0.45805         0.350111        0.401352        0.138764        0.507281        -0.0251878      0.137597        0.13739         0.135676        0.136977        0.138377        0.138215        0.13677         0.136608        0.140388        0.140223        0.140058        0.139893        0.139883        0.139888        0.137907        0.139899        0.139904        0.143593        0.147282        0.24176         -0.124452       0.248904        0.280017        -0.031113       0.28494         0.248009        -0.070895       -0.106713       0.144434        0.142436        0.142913        0.141999        0.142494        0.144546        0.142163        0.143114        0.144101        0.144457        0.145351        0.145151        0.146457        0.144765        0.146087        0.144772        0.145953        0.145552        0.145388        0.145224        0.146361        0.146173        0.145985        0.144739        0.145984        0.148383        0.148199        0.148015        0.14816         0.147986        0.146448        0.148863        0.150062        0.149881        0.149699        0.148125        0.148288        0.125864        0.133322        -0.126178       0.148237
0.334397        0.343819        0.400432        -0.28956        -0.203462       0.117364        0.508139        0.452314        0.396489        0.340664        0.354456        0.359149        0.331422        0.352988        0.353227        0.353466        0.351793        0.352032        0.356005        0.350935        0.354774        0.354225        0.345179        0.346471        0.347764        0.349056        0.349002        0.348949        0.348895        0.34927         0.349239        0.349208        0.349176        0.349396        0.349246        0.349096        0.348946        0.349996        0.349855        0.356018        0.349572        0.350561        0.357063        0.31155         0.327825        0.324554        -0.0213269      0.56233         0.472789        0.126908        0.128293        0.128095        0.127897        0.127699        0.127899        0.12658         0.127163        0.128414        0.12824         0.128066        0.129283        0.129109        0.127971        0.130108        0.129941        0.129775        0.129938        0.0196914       0.129892        0.129868        0.130707        0.129629        0.129509        0.130348        0.0710491       0.369935        0.366826        0.367541        0.366525        0.36667         0.366816        0.366961        -0.0510321      0.00868118      0.546101        0.128108        0.127745        0.121629        0.124921        0.129557        0.121561        0.129305        0.130188        0.130062        0.13083         0.13072         0.130611        0.130501        0.131856        0.120434        0.131469        0.131275        0.131016        0.130756        0.130133        0.132314        0.0756656       0.0214581       -0.0304941      0.349392        0.349695        0.349998        0.347877        0.34818         0.401145        0.454109        0.510515        0.136322        0.137946        0.135858        0.135626        0.13725         0.13319         0.138221        0.132638        0.137897        0.139066        0.138899        0.138732        0.138565        0.138068        0.138139        0.13821         0.138281        -0.138281       -0.138281       -0.138281       0               0               0               0               0               0.246583        0.212685        -0.106343       0.14179         0.141866        0.141372        0.141162        0.142627        0.142461        0.140947        0.14213         0.14329         0.141907        0.141718        0.144217        0.144032        0.142702        0.14368         0.14237         0.144736        0.144567        0.14575         0.144228        0.145412        0.145233        0.146487        0.145056        0.146129        0.147521        0.145731        0.144221        0.146924        0.147236        0.146578        0.145303        0.147617        0.149021        0.14882         0.147553        0.148419        0.155877        0.162187        0.111132        0.118589
0.345572        0.34482         -0.346316       0.456903        0.513516        0.146705        -0.176115       0.537326        0.393564        0.354611        0.362139        0.359058        0.355977        0.350564        0.350802        0.353375        0.353613        0.351519        0.355779        0.350423        0.349874        0.354134        0.355427        0.356719        0.347615        0.348908        0.348854        0.349395        0.349342        0.349288        0.349257        0.350869        0.349194        0.349243        0.349093        0.348943        0.350051        0.349901        0.34976         0.349619        0.349477        0.356145        0.35974         0.307288        0.35483         0.354392        -0.0756039      0.353186        0.50745         0.128592        0.128394        0.615207        0.669387        0.129251        0.127621        0.127443        0.127709        0.129927        0.127378        0.12958         0.129406        0.129453        0.129298        0.129143        0.128988        0.129909        0.673801        0.0755691       0.129839        0.526277        0.0754025       0.0752827       0.0751629       0.376629        0.0153369       0.370413        0.427318        0.368019        0.368152        0.368309        0.367448        0.367096        0.426655        0.486368        0.547648        0.122301        0.128197        0.125231        0.122726        0.122642        0.131508        0.122615        0.130134        0.123891        0.123743        0.123594        0.13164         0.123297        0.131336        0.13097         0.130053        0.129136        0.128875        0.130699        0.128355        0.130178        0.0759708       0.0217633       -0.0324442      0.346822        0.350062        0.350365        0.349561        0.348016        0.40098         0.453945        0.506909        0.136865        0.138419        0.136401        0.137955        0.136491        0.136215        0.13858         0.138418        0.139772        0.139605        0.139438        0.139271        0.139104        0.172638        0.172709        0.139317        -0.138281       0.207422        -0.0691406      -0.103711       0               0               0               0               0.283721        -0.0354475      0.212826        -0.106343       0.141931        0.14342         0.141512        0.140247        0.144103        0.143937        0.143771        0.143605        0.14344         0.14358         0.143391        0.141678        0.144177        0.144143        0.143825        0.143649        0.143645        0.143466        0.144553        0.143108        0.144393        0.144224        0.1452          0.14502         0.147852        0.146664        0.146442        0.147255        0.147057        0.148255        0.148082        0.146979        0.147735        0.149153        0.146417        0.147133        0.147498        0.154908        0.103759        0.111216        0.183932
0.332924        -0.0504081      0.400146        0.0628191       0.119433        0.176046        0.120221        0.446463        -0.322957       0.35452         0.357971        0.358967        0.355886        0.352805        0.353044        0.353283        0.350768        0.356237        0.350459        0.34991         0.349362        0.354771        0.344882        0.356628        0.358477        0.348759        0.349467        0.348652        0.350283        0.349306        0.348961        0.350717        0.350515        0.350313        0.35022         0.35075         0.350036        0.350565        0.326602        0.329233        0.331864        0.355916        0.351444        0.351006        0.350567        0.350129        0.349526        0.348923        0.34832         0.0183537       0.128495        0.56093         0.0729146       0.129374        0.129195        0.129017        0.127365        0.13005         0.128486        0.127327        0.128546        0.13071         0.130543        0.130377        0.13021         0.130044        0.0744641       0.564951        0.0211998       0.470565        0.469079        0.0191628       0.019043        0.0189232       -0.0403753      0.487094        0.427795        0.364674        0.368642        0.368787        0.366777        -0.115337       -0.0551531      0.487444        0.547629        0.125399        0.128648        0.128286        0.13183         0.12371         0.12381         0.123796        0.123782        0.12492         0.124772        0.124623        0.132669        0.124326        0.132192        0.131275        0.130358        0.129441        0.129181        0.128921        0.12866         0.130483        0.0762759       0.0220684       0.404396        0.350126        0.350429        0.350732        0.351035        -0.0744493      0.400815        0.0257161       0.0793887       0.133061        0.135319        0.135017        0.134714        0.134412        0.134136        0.13386         0.133584        0.140311        0.140144        0.139977        0.135785        0.207138        0.169434        0.203536        0.237638        -0.138281       0.241992        0.276562        0.311133        0               0               0               0               0               0.248414        0.211558        -0.106343       0.142072        0.140759        0.140574        0.141444        0.142957        0.142791        0.142625        0.141095        0.145064        0.144879        0.143537        0.141827        0.144464        0.144147        0.143971        0.142661        0.145047        0.145076        0.143443        0.145872        0.144539        0.146977        0.146797        0.145367        0.147984        0.144975        0.146041        0.145843        0.147659        0.147016        0.146842        0.148026        0.147853        0.149284        0.149084        0.148883        0.14763         0.15504         0.16245         0.171055        0.118082
0.344735        0.34339         0.400003        0.456617        0.51323         0.205387        0.619567        0.443538        0.387713        0.354429        0.361957        0.358876        0.355795        0.352714        0.355142        0.353079        0.353431        0.350494        0.355061        0.354341        0.348849        0.35468         0.355916        0.347327        0.347319        0.348611        0.349485        0.349431        0.349378        0.349181        0.349293        0.348777        0.34923         0.348937        0.348787        0.348637        0.348487        0.326648        0.359017        0.358876        0.334542        0.358594        0.292261        0.346743        0.346305        0.345867        0.361178        0.344661        0.344058        -0.0359233      -0.0353445      0.128397        0.560833        0.128002        0.129318        0.126883        0.128961        0.130173        0.127625        0.128435        0.128669        0.130844        0.130678        0.130511        0.130345        0.130178        0.565109        0.510605        0.456101        0.401598        0.400112        0.398625        0.397139        -0.036789       0.374477        0.402692        0.428273        0.366322        0.36912         0.364448        0.367409        0.367057        -0.0547016      0.00548237      0.546043        0.129462        0.1291          0.133148        0.128375        0.124778        0.124765        0.124751        0.124737        0.125949        0.125801        0.125652        0.133698        0.133415        0.132498        0.131581        0.130664        0.129747        0.129487        0.129226        0.131413        0.130789        0.510179        0.0246907       -0.0318339      0.347557        0.34969         0.351099        0.34687         0.349003        0.400651        0.0262595       0.0849878       0.137952        0.135792        0.139133        0.137256        0.137208        0.134609        0.134333        0.139135        0.14085         0.140683        0.140516        0.140349        0.13587         0.140253        -0.102775       0.238177        -0.138281       -0.103711       0.311133        0.345703        0               0               0               0               0.282312        0.248555        0.211699        0.17766         0.142213        0.142004        0.141794        0.141585        0.141804        0.143087        0.141441        0.14126         0.142544        0.145024        0.142166        0.143493        0.14462         0.143138        0.144116        0.142807        0.146525        0.145034        0.144865        0.143419        0.14603         0.14567         0.145691        0.144176        0.146594        0.147918        0.146706        0.146485        0.146263        0.147148        0.148317        0.148144        0.149616        0.149416        0.149215        0.149015        0.147761        0.155172        0.163729        0.171187        0.118167
0.339124        0.344391        0.67689         -0.172195       0.602684        0               -0.0880916      0.674857        0.351733        0.352367        0.35212         0.353845        0.353599        0.353352        0.35317         0.352987        0.352805        0.354082        0.353955        0.353828        0.353701        0.354589        0.355825        0.35706         0.358295        0.349649        0.348861        0.347607        0.349986        0.349199        0.348997        0.350411        0.350209        0.350007        0.350652        0.349454        0.349309        0.350376        0.350369        0.350203        0.350038        0.33985         0.342919        0.342481        0.342042        0.341604        0.345405        0.345222        0.344619        0.344016        0.398196        0.555062        0.347599        0.127296        0.12714         0.0195913       0.126827        0.127922        0.12914         0.128966        0.128792        0.128618        0.129026        0.128836        0.129392        0.129237        0.128481        -0.0898065      0.401756        0.347252        0.345766        -0.200393       -0.255711       0.353196        0.350088        0.346979        0.343871        0.36563         0.365278        -0.22342        -0.282464       0.367038        0.365847        0.366084        0.366321        0.126302        0.662925        0.126585        0.125593        0.125735        0.139734        0.125818        0.125693        0.12579         0.12683         0.126681        0.126533        0.126384        0.132804        0.12455         0.13097         0.130053        0.129792        0.129532        0.129272        0.131094        0.0768862       0.137055        -0.0774429      0.347924        0.347695        -0.184249       0.349067        0.348839        0.557194        0.348772        0.349254        0.134148        0.133846        0.135963        0.13566         0.135358        0.135082        0.134806        0.13453         0.136462        0.13637         0.136383        0.136502        0.136409        0.170512        0.139146        0.140166        0               0               0               0               0               0               0.265769        0               0               0.146575        0.144415        0.142254        0.141226        0.141519        0.140855        0.14067         0.141968        0.141787        0.141606        0.141425        0.142693        0.14155         0.143828        0.143639        0.14345         0.14461         0.143501        0.144278        0.144113        0.142957        0.143754        0.143575        0.14483         0.14466         0.143457        0.144321        0.145508        0.145725        0.144273        0.146617        0.146395        0.147708        0.144791        0.144593        0.147145        0.14581         0.147316        0.146584        0.147893        0.154004        0.162714        0.110841        0.118251
0.340058        0.344372        -0.343315       -0.257217       0.602665        0.705145        0.357461        0.354803        -0.349297       0.354546        0.352532        0.354054        0.353807        0.355076        0.353378        0.353196        0.351515        0.354347        0.35422         0.354093        0.353966        0.713381        0.344663        0.345898        0.347133        0.34863         0.346214        0.348854        0.348967        0.349079        0.349926        0.348675        0.348473        0.35004         0.349948        0.349856        0.349763        0.350356        0.350349        0.350184        0.350018        0.342554        0.342116        0.341678        0.335719        0.340801        0.347246        0.345244        0.347284        0.343835        0.345994        0.501413        0.506375        0.0736473       -0.0339011      0.128369        0.0731782       0.12698         0.129272        0.129098        0.128924        0.129313        0.129123        0.128441        0.128744        0.129334        -0.0352051      0.128603        0.456382        0.401878        0.358449        0.398906        0.355476        -0.266333       0.350882        0.347773        0.512542        0.601964        -0.105506       0.36792         0.367568        0.367216        -0.114019       0.487584        0.544447        0.123729        0.603156        0.0668166       0.0669584       0.12419         0.135573        0.124162        0.124255        0.125339        0.12519         0.137119        0.124893        0.136847        0.137705        0.136532        0.121993        0.137393        0.128912        0.13586         0.128391        0.136681        0.136469        0.136257        -0.032327       0.349883        0.349654        0.349425        0.349196        0.347936        0.348419        -0.0262586      0.349383        0.0810867       0.136252        0.611071        0.135647        0.137655        0.135069        0.134792        0.134516        0.135846        0.136564        0.137344        0.13659         0.136322        0.170424        0.204527        0.140078        0.232274        -0.0331702      -0.0331702      0.232169        0.232244        0.232418        -0.0330043      0.232765        0.148878        0.247288        0.144556        0.176675        0.141846        0.141183        0.139841        0.140812        0.141058        0.140868        0.143177        0.141555        0.141842        0.142626        0.142806        0.142635        0.143992        0.143808        0.143259        0.143093        0.143256        0.145493        0.142903        0.142726        0.143953        0.143768        0.143583        0.145786        0.144743        0.145876        0.14699         0.146768        0.146946        0.147849        0.146551        0.145984        0.147849        0.148577        0.14839         0.148203        0.147029        0.155427        0.103241        0.112477        0.182409
0.340992        0.344353        -0.428337       -0.342239       0.347787        0.360531        0.617464        0.355214        -0.434318       0.349897        0.35345         0.348998        0.354016        0.353769        0.355159        0.352745        0.353222        0.354612        0.354485        0.532138        0.532011        0.342148        0.343383        0.344618        0.345853        0.34851         0.348623        0.347368        0.361151        0.350008        0.349959        0.348556        0.348354        0.349809        0.349981        0.349888        0.350428        0.350336        0.350329        0.355598        0.356914        0.341751        0.333779        0.340874        0.340436        0.339998        0.339395        0.345063        0.344257        0.343654        0.345813        0.452014        0.506194        0.449189        0.0198422       0.128503        0.128347        0.129579        0.129405        0.128174        0.129057        0.130051        0.129896        0.129031        0.129587        0.129432        0.128676        0.128701        -0.0340792      0.569705        0.455018        0.357756        -0.146459       0.495804        0.492695        0.489587        -0.0425595      0.0124084       0.483018        -0.105679       -0.164723       0.483968        0.366204        0.487763        0.366678        0.484915        0.543387        0.601859        0.00718948      0.134366        0.12252         0.12283         0.133671        0.136752        0.12355         0.135463        0.13533         0.13196         0.135809        0.135651        0.135493        0.136595        0.136417        0.127771        0.136061        0.129497        0.135671        0.135459        0.135247        0.0287398       0.454089        0.45466         0.453632        0.349096        0.348548        0.34903         -0.0256475      0.136541        0.0277227       0.135936        0.135634        0.135331        0.135055        0.134779        0.134503        0.137581        0.136652        0.136665        0.136678        0.136235        -0.168647       0.196982        0.238542        -0.0663404      -0.0663404      -0.0663404      -0.0663404      0.197332        -0.0660085      0.197678        -0.0663555      0.198025        0.146859        0.144698        0.142537        0.14151         0.141324        0.142599        0.140953        0.141188        0.14348         0.141866        0.141685        0.143286        0.142747        0.142558        0.142776        0.142606        0.144855        0.143399        0.143233        0.143378        0.144608        0.143999        0.144255        0.146404        0.144911        0.143708        0.144572        0.147585        0.144672        0.145848        0.144312        0.146697        0.14651         0.146322        0.146495        0.147428        0.1487          0.148513        0.148326        0.147153        0.15555         0.161349        0.110462        0.182519
0.346189        0.344485        0.345579        0.51653         -0.341163       -0.255065       -0.343157       0.419792        -0.51934        0.353601        0.353659        0.35447         0.354224        0.353978        0.353795        0.353613        0.351932        0.352758        0.35475         0.354623        0.354496        0.340867        0.622128        0.343338        0.624237        0.344702        0.34592         0.347249        0.346145        0.348841        0.348639        0.35051         0.350308        0.350685        0.350014        0.349921        0.350408        0.350475        0.352947        0.355579        0.349979        0.353932        0.355507        0.34247         0.339633        0.34562         0.338592        0.337989        0.344901        0.34492         0.345633        0.346345        0.347057        -0.0336503      0.128794        0.0199949       -0.0341194      0.128658        0.129537        0.128306        0.127803        0.130149        0.128861        0.129839        0.129684        0.729145        0.674641        0.620138        0.0740966       0.361523        0.515181        0.35855         0.404544        0.355578        0.551565        0.349361        0.51413         0.368981        0.368629        -0.0468091      0.367925        0.366146        -0.233557       -0.173373       0.42491         -0.0530048      -0.0424893      0.0159829       0.121277        0.120877        0.121405        0.132464        0.120836        0.122059        0.12191         0.121762        0.121613        0.121465        0.130162        0.129245        0.134613        0.127411        0.127151        0.126891        0.12663         0.724345        0.082573        0.134661        0.134449        0.561383        0.349912        0.349683        0.349454        0.349225        -0.186054       0.349159        0.349641        0.399456        -0.0253388      -0.0256412      0.557694        0.137831        0.136547        0.134766        0.136197        0.136022        0.13586         0.135698        0.137008        0.161773        0.137865        0.138884        0.164832        0.165851        0.165843        0.165904        0.165896        0.165889        0.166062        0.166236        0.166409        0.282878        0.162861        -0.169626       0.158539        0.142106        0.140321        0.142729        0.141095        0.143783        0.142177        0.141996        0.140749        0.142085        0.144439        0.143087        0.14249         0.144236        0.144052        0.14354         0.144646        0.145923        0.144301        0.143148        0.143942        0.144204        0.144018        0.144866        0.144697        0.146359        0.147514        0.144601        0.145819        0.147228        0.147031        0.146834        0.145047        0.146439        0.148824        0.148637        0.145824        0.147276        0.155673        0.105001        0.110273        0.182629
0.346171        0.344466        0.345561        0.337897        0.338992        0.340087        0.337429        0.339816        0.3396          0.35072         0.353867        0.353417        0.351705        0.352518        0.352393        0.352267        0.337396        0.353022        0.441278        0.338173        0.337931        0               -0.0886925      0.689495        0.357366        0.35477         0.345856        0.345852        0.359673        0.349676        0.348551        0.349975        0.348129        0.349875        0.34973         0.349871        0.3506          0.350455        0.351612        0.350124        0.346774        0.351116        0.340092        0.354266        0.343242        0.344817        0.344682        0.344701        0.34472         0.344739        0.345452        0.346164        0.339121        0.341891        -0.0379062      0.450334        0.0702089       0.127383        0.124083        0.128439        0.123716        0.128087        0.127897        0.129226        0.129036        0.128847        0.128673        0.128698        0.128723        0.128747        0.128526        0.128559        -0.0930715      0.35002         -0.0932945      0.0202131       0.514924        0.130149        0.071105        0.484412        -0.0469828      0.366324        0.366929        0.366798        0.366433        0.365377        -0.0439278      0.482322        0.542327        0.131489        0.133109        0.131026        0.132646        0.132415        0.13334         0.131273        0.132693        0.132944        0.134048        0.132174        0.133732        0.133575        0.133397        0.134642        0.132762        0.134287        0.134075        0.138024        0.133651        0.135134        0.0818372       0.0305241       -0.0247572      0.348323        0.348805        0.349287        0.34977         0.346394        0.39914         0.458995        0.0840037       0.135411        0.136635        0.135061        0.134886        0.13611         0.137244        0.135786        0.13692         0.136758        0.129623        0.138797        0.131661        0.132681        0.132734        0.132666        0.132658        0.132711        0.132884        0.133058        0.133231        0.132017        0.129856        0.127696        0.14282         0.14066         0.142039        0.141842        0.140069        0.141448        0.142776        0.141069        0.140879        0.142207        0.142037        0.141976        0.1418          0.142887        0.142703        0.141231        0.142335        0.143623        0.143979        0.142057        0.141855        0.144329        0.143188        0.144476        0.145256        0.14507         0.143914        0.14615         0.145119        0.14579         0.145832        0.145678        0.145198        0.14658         0.148014        0.14617         0.146499        0.147399        0.154497        0.124199        0.129246        0.119008
0.347255        0.34555         0.346645        0.34774         0.340237        0.340227        0.334407        0.339796        0.355802        0.354726        0.354277        0.353827        0.352115        0.349652        0.352802        0.352676        0.339191        0.354818        0.34021         -0.263213       0.619585        -0.0867014      0.620781        0.359357        0.600735        0.354703        0.344512        0.347244        0.348517        0.348876        0.348665        0.349928        0.350416        0.349828        0.350797        0.349538        0.349634        0.350376        0.35021         0.350031        0.34988         0.364622        0.351289        0.338784        0.340359        0.341934        0.341953        0.341973        0.341992        0.361726        0.343025        0.343737        0.344449        0.342178        0.396235        0.450293        0.074146        0.129173        0.127597        0.124289        0.125595        0.129997        0.129807        0.12809         0.129428        0.129238        0.128705        0.12873         0.12886         0.128779        0.128558        0.0181428       0.460721        -0.0376566      0.129802        0.0203722       0.07534         0.598911        0.0702165       0.0122202       -0.0468237      0.366708        0.366945        0.367182        0.367418        -0.102259       0.423749        0.0146855       0.0717864       0.13163         0.131398        0.131167        0.132745        0.133526        0.133394        0.133262        0.133129        0.134246        0.134088        0.13393         0.133772        0.133615        0.133437        0.133259        0.133081        0.13434         0.13829         0.133916        0.133704        0.136785        0.508027        0.0302883       0.401433        0.349633        0.349545        0.344672        0.349582        -0.0760407      0.398383        0.0296861       0.082432        0.13648         0.136305        0.13613         0.136226        0.137072        0.138252        0.135457        0.136586        0.136424        0.128087        0.129107        0.139482        0.131146        0.131138        0.13113         0.131123        0.131019        0.131193        0.131366        0.13154         0.146053        0.147279        0.12569         0.12353         0.139703        0.142183        0.140823        0.140205        0.141738        0.141402        0.141399        0.14256         0.143725        0.143555        0.143385        0.14186         0.144504        0.14432         0.141389        0.142493        0.143768        0.143592        0.143415        0.143694        0.144449        0.144263        0.144078        0.144412        0.145191        0.146438        0.146258        0.14365         0.147521        0.147324        0.145503        0.146929        0.148358        0.146526        0.146322        0.146638        0.112193        0.11724         0.122288        0.109999        0.132383
0.34834         0.337959        0.336763        0.337857        0.340217        0.340207        0.33683         0.33473         0.358225        0.355136        0.354686        0.354237        0.353787        0.353338        0.353212        0.353086        0.35296         0.356614        0.44487         0.533125        0.341523        -0.173403       0.51815         0.35929         0.443328        0.343171        0.355909        0.347358        0.348631        0.34998         0.349855        0.349805        0.350369        0.349781        0.349636        0.350559        0.349346        0.350269        0.348809        0.348643        0.348478        0.359526        0.35962         0.351462        0.337476        0.339051        0.33907         0.33909         0.339109        0.338961        0.340598        0.335941        0.342022        0.341809        0.395436        0.0209087       0.504309        0.125046        0.124862        0.127811        0.127635        0.130389        0.130199        0.125433        0.126679        0.129897        0.129562        0.129227        0.128892        0.128811        0.12859         0.571421        0.128655        0.0177258       0.129961        0.129705        0.12945         0.603268        0.0703755       0.0115567       -0.0466646      0.367092        0.367329        0.367566        0.366231        -0.102118       -0.0436455      0.48212         0.542125        0.133538        0.131539        0.131308        0.131076        0.133579        0.133447        0.133315        0.133183        0.134285        0.134128        0.13397         0.133812        0.133655        0.133477        0.133299        0.132842        0.134394        0.134182        0.13397         0.133758        0.136549        0.0833009       0.454543        -0.0252289      0.349446        0.348431        0.348913        0.349395        0.344879        -0.0232927      0.0302674       0.0821991       0.134945        0.13477         0.135801        0.13442         0.135451        0.135289        0.135127        0.134965        0.136089        0.137108        0.138405        0.139147        0.141892        0.129603        0.141565        0.129588        0.127313        0.127486        0.144328        0.144188        0.149576        0.147415        0.139878        0.143094        0.13984         0.140736        0.13946         0.13927         0.141735        0.141546        0.141356        0.141166        0.142644        0.141048        0.143543        0.142116        0.144649        0.143341        0.144281        0.142651        0.142752        0.145098        0.14356         0.142145        0.144568        0.145868        0.144717        0.145497        0.145913        0.145131        0.144952        0.146186        0.147672        0.145809        0.144834        0.145827        0.146882        0.148293        0.148088        0.146778        0.110282        0.11533         0.156657        0.161704        0.115186
0.339019        0.347719        0.339033        0.339024        0.340197        0.339468        0.339971        0.339756        0.360647        0.355545        0.355096        0.354646        0.354197        0.353747        0.358788        0.353495        0.353369        -0.613127       0.343802        0.34356         0.623177        0.433507        0.620646        0.531954        0.357165        0.354568        0.355842        0.346195        0.348746        0.350019        0.350744        0.349919        0.350322        0.350111        0.349589        0.349444        0.351109        0.347572        0.349445        0.349846        0.347076        0.346911        0.358218        0.358312        0.358405        0.336168        0.336188        0.337421        0.33744         0.33746         0.339632        0.340344        0.338998        0.342096        0.395395        0.449022        0.504268        0.125435        0.129762        0.125068        0.12941         0.127612        0.127431        0.127251        0.12707         0.129929        0.129594        0.129259        0.130095        0.128589        0.0730107       0.128654        -0.037112       0.516167        0.571135        0.0725972       0.129609        0.603652        0.0715822       0.0125383       -0.0465056      0.367476        0.367713        0.36795         0.368187        -0.101977       0.423547        0.0149678       0.07344         0.130783        0.133404        0.131449        0.131218        0.133633        0.133501        0.133368        0.133236        0.134325        0.132946        0.13401         0.133852        0.133695        0.133517        0.133339        0.133161        0.134448        0.134236        0.134024        0.133812        0.134427        0.507653        0.0278325       -0.0254647      0.347762        0.348244        0.349083        0.348995        0.350182        0.403452        0.456723        0.502359        0.135821        0.134537        0.134362        0.135296        0.135121        0.134959        0.137425        0.135916        0.135754        0.136773        0.137793        0.138812        0.141825        0.141661        0.141497        0.141333        0.141169        0.142463        0.127983        0.128157        0.142043        0.142024        0.145391        0.141986        0.142667        0.139787        0.142273        0.139406        0.141879        0.143267        0.1415          0.14131         0.142698        0.143871        0.142358        0.143531        0.143683        0.143177        0.141705        0.142809        0.145394        0.144338        0.144136        0.143529        0.146173        0.145022        0.145803        0.144131        0.145432        0.144276        0.145636        0.144892        0.146114        0.145096        0.145719        0.147231        0.145824        0.146829        0.145391        0.148023        0.147818        0.113419        0.0990796       0.169112        0.128561
0.3403          0.340128        0.340118        0.340108        0.340177        0.340167        0.337454        0.339736        0.333045        0.341029        0.350477        0.350123        0.353343        0.35088         0.352141        0.346145        0.346976        0.345839        0.348413        0.349019        0.347047        0.346806        0.339717        0.359156        0.335158        0.355039        0.344854        0.346309        0.359404        0.349219        0.344617        0.350486        0.350275        0.350064        0.349873        0.349683        0.349492        0.350826        0.349352        0.356508        0.358197        0.356723        0.356067        0.35691         0.355371        0.356348        0.356823        0.357276        0.357774        0.354446        0.357544        0.335859        0.338957        0.342055        0.392802        0.0175448       0.500345        0.125825        0.124925        0.124763        0.124601        0.126558        0.125481        0.125309        0.125136        0.127281        0.126946        0.12929         0.126276        0.128621        0.128393        0.128686        0.127551        0.128491        0.128235        0.12798         0.129768        0.129513        0.0706937       0.128133        0.127985        0.364788        0.36454         0.364292        0.366029        0.365781        -0.0452185      0.365299        0.365681        0.130924        -0.0429558      0.0150611       0.770378        0.132021        0.0772449       0.131667        0.13149         0.13273         0.133928        0.578309        0.133586        0.133415        0.57351         0.1344          0.132922        0.134072        0.137582        0.137081        0.132567        0.136078        0.384429        0.383694        0.58713         0.349072        0.348984        0.348896        0.348807        0.349424        0.386382        0.385916        0.083072        0.136342        0.136071        0.137973        0.605173        0.137429        0.138599        0.138432        0.136928        0.138098        -0.0363209      0.137736        0.139003        0.138822        0.138658        0.139805        0.139641        0.139478        0.138457        0.138818        0.140178        0.140038        0.138987        0.14            0.139981        0.140113        0.141444        0.138391        0.139543        0.140873        0.139537        0.139352        0.139167        0.141552        0.141376        0.1412          0.141248        0.142256        0.140898        0.143435        0.142024        0.143042        0.14284         0.14306         0.142856        0.143851        0.14245         0.143482        0.142045        0.144589        0.145936        0.143165        0.144433        0.145359        0.144073        0.143899        0.145197        0.145975        0.145759        0.147274        0.144404        0.146841        0.148842        0.151875        0.161983        0.126651
0.339798        0.342261        0.34026         0.339803        0.34024         0.34023         0.340015        0.339799        0.339319        0.351014        0.35066         0.350306        0.353526        0.349598        0.350429        0.353584        0.344333        0.345593        0.348167        0.34511         0.349378        0.347407        0.345348        0.356936        0.354657        0.355419        0.34539         0.346845        0.35721         0.345468        0.351129        0.34767         0.347355        0.350496        0.350305        0.350115        0.349924        0.349775        0.3483          0.346826        0.358303        0.35598         0.356922        0.357771        0.357603        0.356193        0.357278        0.357144        0.357619        0.353658        0.33314         0.336237        0.339335        0.342433        0.39318         0.446952        0.0718595       0.125917        0.125018        0.124855        0.124693        0.128124        0.125595        0.127763        0.127583        0.130057        0.129722        0.129387        0.125355        0.128717        0.12875         0.128537        0.128815        0.128602        0.128347        0.128091        0.129903        0.128565        0.128417        -0.0465549      0.482413        0.60028         0.423346        0.423097        0.366185        -0.162108       0.365072        0.365455        0.0140345       0.0727487       0.0724744       0.0151769       0.0731938       0.0798814       0.66918         0.0795271       0.56148         0.526704        0.0790015       0.523143        0.0786591       0.0784884       0.0783242       0.0781599       0.0779957       0.536353        0.526834        0.0768284       0.533597        0.0794205       0.504673        0.451425        0.530473        0.344928        0.34484         0.344752        0.344663        0.344746        -0.0818837      0.451287        0.380772        0.0779278       0.077656        0.54703         0.0771125       0.546742        0.0802622       0.0800951       0.0799281       0.139608        0.07958         0.139246        0.139064        0.140212        0.139367        0.138556        0.13972         0.138927        0.138912        0.138896        0.140381        0.140241        0.138555        0.140203        0.140184        0.138972        0.140086        0.140284        0.139706        0.139865        0.141204        0.14202         0.139311        0.141871        0.141712        0.142754        0.142578        0.141235        0.141043        0.142366        0.140661        0.141984        0.14178         0.142789        0.142587        0.144478        0.144275        0.142397        0.143447        0.143667        0.143482        0.143297        0.144571        0.144386        0.144212        0.144038        0.146248        0.145142        0.145878        0.14635         0.147186        0.14697         0.148971        0.152004        0.162112        0.139845
0.341077        0.340333        0.340323        0.340314        0.339489        0.340294        0.340078        0.339863        0.339647        0.337178        0.358635        0.350489        0.350135        0.349781        0.350612        0.351443        0.346484        0.347315        0.347921        0.348527        0.349132        0.348008        0.34595         0.357316        0.357858        0.344471        0.345926        0.347381        0.360164        0.351772        0.348417        0.349869        0.347787        0.347472        0.349295        0.350547        0.350356        0.348723        0.357037        0.345775        0.358409        0.355663        0.357783        0.357122        0.357448        0.35728         0.351443        0.356965        0.356807        0.352869        0.326993        0.367706        0.339713        0.342811        -0.0361634      0.017729        0.0719516       0.127518        0.12511         0.124947        0.126043        0.126785        0.128065        0.127884        0.125362        0.130153        0.127188        0.129483        0.125476        0.127631        0.128846        0.128879        0.128911        0.128714        0.12759         0.128203        0.130039        0.128701        0.658856        0.600037        -0.0466735      0.0119539       0.482151        0.481903        0.366341        0.366093        0.365228        -0.102855       -0.0441409      -0.100741       -0.0427242      0.132801        0.0137505       0.132253        0.615623        0.561773        0.131721        0.0237664       0.452292        0.0252732       0.0232527       0.0222482       0.022084        0.461939        0.0217555       0.479696        0.478777        0.477858        0.0232648       0.553778        0.500529        0.447281        0.394032        0.340421        0.379359        0.372691        0.340519        0.340068        0.393339        0.446609        -0.0337574      0.489176        0.0192413       0.486253        0.485964        0.0205659       0.0203989       0.0217585       0.487804        0.139669        0.139488        0.139307        0.139126        0.138945        0.138781        0.138617        0.138013        0.139635        0.138864        0.139355        0.139215        0.138818        0.140425        0.138699        0.13864         0.139135        0.138926        0.138717        0.139869        0.142488        0.142318        0.13964         0.139455        0.142016        0.14062         0.140461        0.142723        0.142547        0.142708        0.140998        0.140807        0.142135        0.144757        0.14294         0.144352        0.14415         0.144407        0.143781        0.144001        0.145266        0.144659        0.146021        0.144275        0.14683         0.144351        0.144177        0.144003        0.145261        0.145055        0.147532        0.147315        0.147099        0.1491          0.112786        0.155167        0.13796
0.336276        0.341652        0.34201         0.340377        0.339184        0.359476        0.340142        0.339926        0.352862        0.350657        0.350303        0.356356        0.353893        0.349964        0.344576        0.345407        0.355211        0.347069        0.349334        0.344618        0.344376        0.3438          0.346551        0.344492        0.342434        0.353138        0.354749        0.347917        0.344929        0.350827        0.350616        0.348534        0.348219        0.347904        0.348243        0.350979        0.357757        0.35746         0.357143        0.356826        0.356509        0.356193        0.355601        0.355857        0.355689        0.355882        0.356357        0.35681         0.356652        0.352081        0.355178        0.336994        0.340091        0.340165        0.397247        0.451304        0.0715927       0.127631        0.125202        0.127264        0.124877        0.126898        0.128186        0.125648        0.127825        0.127644        0.129217        0.128857        0.126639        0.12891         0.12779         0.12876         0.129007        0.128825        0.127701        0.12747         0.130174        0.0713534       0.128688        0.128539        0.600024        0.541205        0.0118617       0.366745        0.54046         0.366249        0.424963        0.365766        -0.102316       0.421801        -0.0438763      0.132917        0.595852        0.615916        0.0775922       0.0237421       -0.0301079      -0.0279415      -0.0281127      -0.0282839      0.411029        -0.0320851      -0.0341562      -0.0343204      -0.0344846      -0.0318878      -0.0351504      -0.0356519      -0.0333924      -0.033894       -0.0871425      -0.140391       0.370527        0.375303        0.36917         0.335567        0.367925        0.372814        0.388661        0.441931        0.371416        0.430744        0.430455        -0.0394451      -0.0375941      -0.0362441      0.429997        0.429925        -0.0367452      0.139731        0.139549        0.139368        0.139187        0.139006        0.138842        0.138221        0.139877        0.139713        0.139067        0.139433        0.139036        0.139021        0.140629        0.139417        0.140591        0.142066        0.139089        0.140572        0.138671        0.140153        0.141136        0.139784        0.140797        0.141938        0.143221        0.143045        0.140431        0.144282        0.144085        0.141144        0.140953        0.143916        0.143294        0.143091        0.141675        0.1443          0.144116        0.142697        0.145168        0.146545        0.143745        0.144599        0.145968        0.146949        0.146794        0.14664         0.145313        0.146332        0.146814        0.147661        0.145683        0.147228        0.126974        0.110901        0.115949        0.174349
0.336664        0.341347        0.341705        0.342064        0.342422        0.339913        0.337708        0.335504        0.352685        0.348732        0.348378        0.351225        0.350501        0.350147        0.350978        0.35181         0.345992        0.346823        0.354401        0.348035        0.357897        0.344401        0.360356        0.352349        0.355797        0.353518        0.349563        0.350853        0.352142        0.347075        0.34676         0.3439          0.343648        0.348336        0.35368         0.358379        0.350914        0.355032        0.354715        0.356932        0.354081        0.356299        0.357473        0.355963        0.353227        0.356969        0.359152        0.356654        0.356497        0.3576          0.361864        0.366129        -0.14533        0.340543        -0.0921514      0.12433         0.124203        0.125456        0.125294        0.125308        0.126269        0.126106        0.127315        0.125761        0.125848        0.126797        0.12541         0.12515         0.126569        0.128235        0.128282        0.12833         0.127997        0.128045        0.127813        0.128134        0.126601        0.128971        0.128823        0.128686        0.128526        0.129565        0.538517        0.0117694       0.424055        0.365157        0.36554         0.365923        0.365419        0.363626        0.421642        0.372149        0.537676        0.131558        0.077708        0.0238579       -0.0299922      0.346958        0.365274        0.357643        0.362848        0.354081        0.37528         0.367038        0.350368        0.359032        0.378266        0.357195        0.356277        0.362707        0.374898        0.379888        0.373456        0.365648        0.370003        0.364403        0.38117         0.368136        0.3714          0.379714        0.370467        0.370001        0.369712        0.381488        0.371445        0.371157        0.371085        0.38356         0.371516        0.371444        0.620033        0.487878        0.546096        0.138576        0.138429        0.139456        0.13931         0.139163        0.13927         0.0209169       0.13924         0.139224        0.139639        0.139106        0.139047        0.139461        0.142827        0.140716        0.138834        0.140297        0.14159         0.143452        0.143259        0.141036        0.142885        0.14199         0.141831        0.141672        0.141481        0.14129         0.143355        0.142437        0.143862        0.14203         0.141826        0.143252        0.143049        0.143012        0.142644        0.144062        0.143466        0.143692        0.144988        0.144803        0.144603        0.145847        0.144207        0.145499        0.143787        0.146737        0.14488         0.146324        0.145339        0.145718        0.146097        0.13419
0.33751         0.317906        0.345054        0.341827        0.345771        0.357648        0.340339        0.338135        0.352783        0.348045        0.348476        0.350838        0.350484        0.34277         0.343601        0.351792        0.345263        0.351925        0.3467          0.343603        0.344209        0.344814        0.33947         0.337433        0.335396        0.354174        0.342577        0.357395        0.345799        0.347409        0.344486        0.349363        0.349048        0.348733        0.354368        0.359067        0.351601        0.357881        0.356162        0.355086        0.354783        0.357939        0.35391         0.356278        0.357436        0.357268        0.359451        0.356953        0.356795        0.322393        0.366894        -0.144565       0.482311        0.124756        0.124629        -0.0382074      0.124376        0.124249        0.125466        0.126578        0.123685        0.127628        0.127456        0.124721        0.125735        0.129913        0.126578        0.127069        0.12681         0.128475        0.128011        0.128059        0.128106        0.128154        0.127922        0.1269          0.126711        0.129123        0.128975        0.128826        0.128678        0.128529        0.0698264       0.483296        -0.0475786      0.362753        0.365883        0.366266        0.366649        0.365051        -0.0972663      0.50808         0.537473        0.370115        0.368598        0.511939        0.510422        0.359331        0.35755         0.36162         0.360407        0.374644        0.35097         0.365164        0.35862         0.357382        0.356463        0.36293         0.362011        0.374005        0.379009        0.372563        0.358887        0.376846        0.380772        0.380193        0.362181        0.370337        0.369871        0.378157        0.377718        0.380707        0.380333        0.379959        0.369831        0.369542        0.36947         0.381946        0.384283        0.369647        0.427864        0.559775        0.544298        0.0798887       0.079742        0.557934        0.558062        0.139147        0.617898        0.139116        0.139101        0.139086        0.139027        0.138967        0.139252        0.139193        0.138984        0.140469        0.138566        0.14202         0.141828        0.141152        0.143005        0.140783        0.141873        0.141714        0.140306        0.141396        0.144795        0.141013        0.143079        0.143335        0.141972        0.14363         0.143427        0.143221        0.143186        0.143152        0.143118        0.143084        0.145569        0.143831        0.143646        0.143332        0.143134        0.144591        0.145859        0.144195        0.143973        0.145273        0.146701        0.150062        0.122605        0.145888        0.146267        0.151578
0.338356        0.321255        0.348402        0.348761        0.320177        0.357746        0.34297         0.353337        0.351132        0.348143        0.348574        0.350821        0.350467        0.350113        0.350944        0.351775        0.352606        0.345366        0.343411        0.346577        0.347183        0.345228        0.342948        0.359388        0.351622        0.349585        0.350874        0.352163        0.343783        0.347743        0.350075        0.344568        0.349445        0.34913         0.361429        0.353672        0.352289        0.356407        0.350216        0.357562        0.355098        0.356929        0.356761        0.354041        0.357735        0.357567        0.35741         0.357252        0.357094        0.327423        -0.1438         0.434034        -0.0371885      0.0161172       0.124802        0.124675        0.0720298       0.124421        0.125639        0.124045        0.125413        0.126665        0.127596        0.124868        0.127251        0.130154        0.129795        0.129435        0.129076        0.126791        0.128764        0.128168        0.128859        0.128263        0.128627        0.1278          0.129507        0.129275        0.129134        0.128978        0.128829        0.597906        0.0699745       0.011272        0.424742        0.365844        0.366227        0.366609        0.366992        0.364848        0.421235        -0.0940231      -0.0360062      0.367674        -0.0318394      0.364639        -0.13954        0.357458        0.36896         0.353896        0.352115        0.360683        0.359445        0.363291        0.369949        0.355732        0.368052        0.353894        0.352976        0.359479        0.358743        0.370949        0.370228        0.367511        0.366889        0.366267        0.360582        0.377477        0.377039        0.3766          0.367409        0.366943        0.366654        0.366365        0.366076        0.383252        0.367856        0.380331        0.367712        0.367849        0.426066        0.499638        0.381865        0.0200276       0.499523        0.0197342       0.0195874       0.0194407       0.138993        0.02064         0.138963        0.138947        0.139103        0.139677        0.141259        0.142522        0.140884        0.142148        0.138298        0.143329        0.139621        0.142944        0.141197        0.142559        0.14037         0.142196        0.143512        0.14268         0.142488        0.142297        0.140546        0.143306        0.141711        0.144063        0.144093        0.143194        0.142992        0.143292        0.143258        0.143223        0.143108        0.142994        0.143657        0.143542        0.143344        0.143146        0.146046        0.145872        0.145967        0.143937        0.146872        0.117088        0.120121        0.146059        0.146438        0.149094
0.32277         0.324604        0.346731        0.35211         0.352468        0.326758        0.345601        0.317283        0.341192        0.348241        0.351643        0.347303        0.350449        0.350234        0.350926        0.350228        0.343806        0.350467        0.345243        0.353963        0.345035        0.345641        0.340297        0.360043        0.352278        0.350241        0.35153         0.344856        0.344116        0.348077        0.350472        0.350157        0.349842        0.34635         0.344967        0.343584        0.358768        0.357094        0.358194        0.356461        0.356144        0.354724        0.357076        0.356908        0.354172        0.373319        0.357708        0.364621        0.327879        -0.143035       0.376953        0.381217        0.385481        0.125101        0.124974        0.124848        0.0698076       0.125974        0.124406        0.124218        0.12403         0.12791         0.127737        0.127565        0.124837        0.130395        0.130035        0.129676        0.129316        0.128957        0.12823         0.129052        0.128325        0.128373        0.128141        0.127909        0.129659        0.129427        0.129279        0.12913         0.128982        0.59825         0.542881        0.483983        -0.0466843      0.36344         0.361866        0.366953        0.367336        0.364644        0.395086        0.371538        0.374985        0.365233        0.363716        0.402392        0.360681        0.355584        0.367087        0.356737        0.364661        0.359032        0.357795        0.356557        0.368299        0.354081        0.36062         0.359702        0.364637        0.357865        0.357129        0.356394        0.374367        0.373646        0.360226        0.359604        0.358982        0.379403        0.375482        0.366346        0.374604        0.377648        0.380349        0.379975        0.379601        0.379228        0.366267        0.378717        0.380688        0.366051        0.380311        0.380189        0.380067        -0.0398335      -0.0399803      0.439516        0.43834         -0.0989132      0.138855        0.0205016       0.138824        0.138809        0.141369        0.13869         0.138631        0.140802        0.138448        0.140428        0.13803         0.143075        0.141336        0.141143        0.142498        0.142305        0.143599        0.143418        0.143236        0.143054        0.142878        0.142702        0.142526        0.143744        0.143777        0.143802        0.143831        0.143166        0.145089        0.143326        0.143292        0.146174        0.144296        0.145804        0.143018        0.143752        0.145259        0.144963        0.143159        0.14636         0.146138        0.145645        0.147043        0.145472        0.117637        0.14623         0.146231        0.14661
0.326118        0.327952        0.327593        0.330108        0.326875        0.329389        0.362552        0.318281        0.315176        0.348339        0.351625        0.349933        0.349464        0.350217        0.350337        0.349499        0.350479        0.349739        0.351486        0.351547        0.352137        0.342748        0.34071         0.353556        0.354015        0.350896        0.352185        0.338714        0.337659        0.34574         0.345488        0.355771        0.346999        0.346747        0.354661        0.354021        0.353664        0.352281        0.355317        0.356417        0.356187        0.355039        0.356326        0.356142        0.354487        0.355774        0.360347        0.36492         0.332909        0.337482        0.355142        0.0176476       0.0901653       0.124259        0.125147        0.12502         0.124893        0.124766        0.124578        0.12439         0.124202        0.125519        0.12534         0.125162        0.124983        0.126233        0.136375        0.136391        0.136407        0.127272        0.0820534       0.127774        0.127691        0.127607        0.61307         0.128742        0.719242        0.128364        0.128211        0.129278        0.127907        0.128973        0.0702706       0.0289168       0.371742        0.363783        0.364933        0.363455        0.36329         0.36444         0.364226        0.371334        0.347206        0.350653        0.359697        0.359757        0.35824         0.356722        0.355509        0.354296        0.366752        0.361574        0.368678        0.359545        0.35853         0.365634        0.364751        0.363869        0.367262        0.369163        0.381258        0.380452        0.367           0.372047        0.371467        0.370888        0.382898        0.374364        0.381584        0.380979        0.376557        0.376119        0.388663        0.378361        0.377987        0.377614        0.389354        0.386778        0.388801        0.378635        0.388335        0.378391        0.37827         0.379122        0.391646        0.37835         0.378479        0.378608        0.629756        0.391267        0.391294        0.139778        0.141101        0.140912        0.140723        0.140534        0.140347        0.141656        0.139973        0.141282        0.141089        0.140897        0.140705        0.142052        0.14187         0.141688        0.141507        0.142778        0.142602        0.143835        0.142585        0.143482        0.143278        0.143541        0.143337        0.143366        0.143332        0.143297        0.145637        0.143503        0.143388        0.143273        0.143158        0.143962        0.143764        0.143567        0.144952        0.144754        0.144532        0.14431         0.144088        0.145642        0.146021        0.1464          0.143747        0.144126
0.398694        0.318112        0.332748        0.32864         0.313397        0.328034        0.362704        0.356836        0.352056        0.351022        0.350554        0.351308        0.350839        0.35037         0.350623        0.348925        0.34954         0.350289        0.336268        0.350224        0.350813        0.341511        0.351862        0.356229        0.354192        0.352155        0.356504        0.342076        0.356023        0.344654        0.346434        0.354702        0.34593         0.345678        0.356106        0.342912        0.352313        0.351956        0.357906        0.355427        0.349888        0.355838        0.355654        0.361033        0.355286        0.297283        0.365238        0.369811        0.374384        0.311092        0.394558        0.447863        0.501169        0.122543        0.122416        0.123377        0.13632         0.123124        0.122935        0.122747        0.122559        0.135863        0.123863        0.123684        0.135963        0.127321        0.134156        0.134172        0.126541        0.134204        0.0810632       0.073727        0.559078        0.505937        0.0733704       0.0731812       0.0806813       0.133767        0.127439        0.128657        0.128504        0.604162        0.0808081       0.0282958       0.428055        0.369352        0.380612        0.374981        0.369351        0.36372         0.364328        0.364937        0.34447         0.358479        0.360672        0.359154        0.360326        0.365919        0.364706        0.353694        0.36228         0.374229        0.360052        0.359037        0.361814        0.378702        0.364154        0.376604        0.36239         0.381216        0.367679        0.379603        0.366237        0.37799         0.377281        0.376573        0.38192         0.381211        0.380606        0.375851        0.375413        0.374974        0.383687        0.383243        0.382799        0.37842         0.376143        0.377909        0.377654        0.378305        0.378184        0.377155        0.377033        0.377818        0.376646        0.378076        0.376903        0.377032        0.436739        -0.0408939      0.0188135       0.0785208       0.0804591       0.0802701       0.080081        0.142152        0.141965        0.141778        0.141591        0.141404        0.141212        0.142574        0.140827        0.143655        0.143473        0.141826        0.141645        0.142928        0.142752        0.143971        0.1424          0.143618        0.143648        0.143677        0.143706        0.143397        0.143246        0.143212        0.145395        0.14326         0.143145        0.14303         0.143764        0.143649        0.145035        0.143253        0.145561        0.144441        0.146773        0.145823        0.143775        0.145379        0.145758        0.150174        0.146516        0.143311
0.4001          0.319517        0.317946        0.316375        0.329686        0.329776        0.361767        0.320301        0.352208        0.348643        0.350707        0.351461        0.350992        0.350522        0.350642        0.349342        0.349462        0.35021         0.3508          0.353077        0.354825        0.361563        0.350625        0.351083        0.351542        0.353414        0.339701        0.354363        0.353308        0.343569        0.353869        0.343065        0.353398        0.353162        0.343226        0.354397        0.351244        0.354232        0.358705        0.358016        0.349562        0.350243        0.35415         0.35627         0.322523        0.32673         0.331303        0.333335        0.340449        0.345022        0.398328        0.410502        0.504939        0.134554        0.134785        0.134732        0.134678        0.134624        0.134601        0.121104        0.134555        0.133694        0.124237        0.134452        0.134486        0.133828        0.126071        0.133859        0.125551        0.133214        0.611312        0.125124        -0.0262084      0.0195124       0.127387        0.0268233       0.611148        0.132705        0.126667        0.126515        0.132991        0.132699        0.0690285       0.492327        -0.0483766      0.365303        0.324738        0.319107        0.374429        0.364635        0.334841        0.338287        0.374987        0.367068        0.358492        0.359108        0.357034        0.355517        0.364198        0.358104        0.361772        0.373632        0.372528        0.371423        0.357515        0.36444         0.37689         0.369401        0.361793        0.373743        0.372937        0.37213         0.377947        0.377141        0.376432        0.36919         0.375015        0.380233        0.379628        0.379023        0.374268        0.376679        0.386234        0.373082        0.381655        0.387159        0.374929        0.376673        0.374418        0.376163        0.37688         0.376758        0.376637        0.374941        0.37507         0.376772        0.388207        0.375456        0.388089        0.388116        0.388142        0.502682        0.507747        0.0168857       0.0166967       0.142275        0.142088        0.141901        0.141714        0.141931        0.142905        0.141142        0.140949        0.142328        0.142146        0.141964        0.142044        0.141875        0.144283        0.142727        0.142551        0.143078        0.143107        0.143813        0.14209         0.143154        0.145535        0.143496        0.143051        0.143017        0.142902        0.142787        0.143451        0.144919        0.145644        0.14294         0.144326        0.144128        0.143906        0.14556         0.143462        0.145115        0.149531        0.149359        0.146252        0.142497
0.592255        0.320923        0.333135        0.31778         0.316209        0.32997         0.325232        0.357139        0.35236         0.348795        0.347112        0.350391        0.349922        0.350675        0.350795        0.349264        0.349383        0.350131        0.350721        0.351311        0.351901        0.362822        0.349388        0.334964        0.35671         0.354673        0.343546        0.342491        0.352223        0.351167        0.3528          0.341979        0.352329        0.356464        0.355455        0.354072        0.352689        0.360194        0.359505        0.349927        0.355212        0.357437        0.357253        0.357069        0.356885        0.331321        0.375019        0.339646        0.344219        0.348792        -0.010622       0.0125002       0.065806        0.132838        0.120218        0.133089        0.133035        0.133           0.11965         0.119462        0.121274        0.121086        0.120907        0.132974        0.133008        0.12534         0.132578        0.132192        0.121656        0.124301        0.557265        0.504124        -0.0271986      -0.0801207      -0.0270346      0.0260514       0.557101        0.126048        0.132222        0.125743        0.125591        0.12711         0.493474        0.440962        -0.0489976      0.380491        0.380326        0.365077        0.364913        0.363926        0.364534        0.365142        0.375089        0.360984        0.359466        0.365563        0.366179        0.354914        0.353701        0.366347        0.36523         0.360052        0.359037        0.361903        0.369722        0.363843        0.376126        0.375077        0.367755        0.37298         0.378711        0.377905        0.37056         0.382089        0.375583        0.374875        0.367762        0.384262        0.37865         0.378045        0.37744         0.381842        0.37509         0.374717        0.38051         0.375948        0.375692        0.375437        0.373203        0.386396        0.374805        0.375455        0.375333        0.38564         0.37534         0.375469        0.385208        0.386487        0.433587        -0.163408       0.386566        -0.0439934      0.44649         0.442892        -0.0412031      -0.0413921      -0.0415791      0.142023        0.0800919       0.141649        0.141457        0.141264        0.142658        0.142466        0.141193        0.142102        0.141921        0.143229        0.144419        0.141645        0.142993        0.142993        0.143919        0.143949        0.142226        0.143109        0.143075        0.142843        0.143219        0.142774        0.143367        0.144347        0.14243         0.144606        0.142825        0.142627        0.142429        0.143815        0.145518        0.147304        0.145074        0.144852        0.148717        0.148544        0.145989        0.1491
-0.241747       0.322329        0.320758        0.319186        0.317615        0.328615        0.36207         0.319056        0.314276        0.347732        0.351012        0.350543        0.350075        0.349606        0.3503          0.349383        0.349271        0.350053        0.350643        0.351232        0.347104        0.347694        0.351182        0.351458        0.345402        0.34586         0.351586        0.352192        0.350739        0.350082        0.349846        0.351495        0.349593        0.351024        0.350384        0.349745        0.354221        0.353582        0.354017        0.346094        0.354887        0.351841        0.324489        0.328396        0.348516        0.336211        0.312045        0.304825        0.346568        0.322402        0.508293        0.0354822       0.508656        0.131122        0.131068        0.131446        0.131392        0.131338        0.145776        0.131292        0.131453        0.13143         0.131463        0.145775        0.131263        0.131296        0.14626         0.131201        0.14618         0.131233        0.0780924       0.450077        -0.00674278     0.343796        -0.00683723     0.0252794       0.0783655       0.131451        0.13145         0.131449        -0.00186028     0.131457        0.499043        0.351208        -0.0260797      0.341507        0.380921        0.373467        0.36861         0.364029        0.364637        0.369614        0.360988        0.361596        0.362212        0.357902        0.360547        0.359133        0.366957        0.36584         0.360765        0.363604        0.358748        0.361396        0.360292        0.368021        0.366972        0.375623        0.360301        0.372216        0.380611        0.377056        0.369561        0.375443        0.374734        0.379694        0.378985        0.378277        0.381598        0.377066        0.381302        0.380697        0.380253        0.379809        0.388996        0.382473        0.387947        0.391985        0.381642        0.38358         0.384903        0.3934          0.390118        0.384336        0.392651        0.392523        0.392395        0.384911        0.384937        0.393044        0.38478         0.384806        0.395255        0.385659        0.382676        0.383102        0.395667        0.0196368       0.0802144       0.140792        0.140615        0.0167493       0.141677        0.1415          0.141331        0.142514        0.142345        0.142176        0.14351         0.141795        0.141604        0.142939        0.144285        0.144093        0.142362        0.143708        0.143516        0.143325        0.144666        0.144474        0.145771        0.144104        0.1454          0.145215        0.1466          0.146402        0.146204        0.146006        0.147213        0.14704         0.146868        0.146696        0.146523        0.146351        0.147557        0.147385
0.400883        0.336524        0.337888        0.339251        0.331093        0.366812        0.324742        0.319963        0.353719        0.347995        0.346649        0.346643        0.3505          0.350031        0.350512        0.3504          0.349696        0.350177        0.349065        0.351356        0.35192         0.351799        0.347565        0.348024        0.352628        0.345092        0.350818        0.350394        0.351466        0.349944        0.350514        0.349985        0.349456        0.354038        0.349954        0.349314        0.354235        0.353596        0.354031        0.354466        0.351897        0.317364        0.356239        0.348807        0.329087        0.291061        0.312469        0.305248        0.343351        0.322826        -0.0595522      0.319799        0.461442        0.129702        0.129648        0.129594        0.0989922       0.129486        0.129463        0.129673        0.12965         0.144581        0.12966         0.129694        0.129387        0.144424        0.144385        0.144831        0.129286        0.144751        0.0936095       0.445605        -0.03012        0.343863        -0.0296944      0.0233916       0.0764776       0.129564        0.0951948       0.0457233       0.129559        0.490962        0.0275871       -0.0249252      0.485281        0.340767        0.380955        0.375324        0.368645        0.369383        0.358855        0.368698        0.365888        0.36068         0.356959        0.357575        0.362527        0.361424        0.357688        0.356571        0.355453        0.37284         0.362962        0.361858        0.369527        0.365207        0.367374        0.374264        0.374071        0.372166        0.377599        0.370553        0.369746        0.380607        0.379899        0.37919         0.373054        0.377773        0.377168        0.380387        0.385646        0.389995        0.379647        0.379203        0.383196        0.391987        0.381453        0.386737        0.386269        0.390116        0.389805        0.383659        0.389184        0.391723        0.391595        0.391467        0.382849        0.383872        0.383571        0.392005        0.391914        0.392901        0.392947        0.384502        0.384928        0.572579        0.572852        0.573126        0.5734          0.0789518       0.142173        0.697285        0.141819        0.142092        0.142805        0.142635        0.14152         0.143845        0.143654        0.142269        0.141725        0.141933        0.14289         0.142698        0.141318        0.144336        0.145179        0.144987        0.144796        0.146077        0.144419        0.144234        0.145521        0.144368        0.145138        0.146527        0.144743        0.146132        0.145959        0.147184        0.145615        0.145687        0.148013        0.146495        0.147668        0.147496
0.334693        0.334496        0.33586         0.337223        0.313559        0.366775        0.325649        0.320869        0.353681        0.347657        0.347074        0.34672         0.346251        0.350456        0.350345        0.350233        0.349722        0.351695        0.344751        0.35148         0.345931        0.346521        0.346979        0.351765        0.350197        0.350473        0.343268        0.351918        0.341157        0.349807        0.355195        0.349336        0.354137        0.350163        0.353413        0.348884        0.354249        0.35361         0.354045        0.351952        0.354915        0.348898        0.35673         0.349298        0.349497        0.355515        0.362608        0.316345        0.376795        0.319859        0.320041        0.414046        0.320404        0.12785         0.127796        0.127742        0.127688        0.127634        0.127611        0.127588        0.127847        0.127824        0.127857        0.127891        0.127924        0.142549        0.127323        0.1429          0.127593        0.547956        0.503353        0.0210894       -0.0320512      0.343931        -0.0106129      0.450103        0.49678         0.127676        0.093307        0.538547        0.0287431       0.0287416       -0.0237707      0.349729        0.39254         0.345942        0.341085        0.373536        0.368679        0.364098        0.364706        0.365314        0.365922        0.356277        0.360379        0.357248        0.36161         0.36215         0.360768        0.356243        0.355126        0.364528        0.372138        0.362319        0.369929        0.376311        0.375262        0.362606        0.365679        0.372115        0.377335        0.370502        0.369696        0.385092        0.384144        0.373498        0.37279         0.377269        0.376664        0.376059        0.38504         0.384333        0.383752        0.378597        0.38751         0.382819        0.390585        0.382265        0.385526        0.389182        0.388872        0.391289        0.38825         0.390668        0.39054         0.390412        0.390284        0.382389        0.382415        0.382441        0.382467        0.392136        0.378752        0.391837        0.391883        0.38003         -0.164621       0.501185        -0.043466       0.142492        0.142315        0.142138        0.141961        0.141784        0.141615        0.141446        0.142587        0.142418        0.142228        0.143607        0.141846        0.144739        0.144547        0.142841        0.142649        0.14397         0.145309        0.145117        0.143395        0.144734        0.144549        0.145828        0.145642        0.145457        0.145259        0.145062        0.144864        0.146257        0.146085        0.145912        0.14574         0.148296        0.147334        0.146639        0.147779        0.146718
0.332665        0.316245        0.314674        0.335195        0.336558        0.370815        0.326555        0.321776        0.316997        0.34792         0.352287        0.346682        0.35135         0.350881        0.347069        0.350648        0.346243        0.351109        0.344165        0.351604        0.352194        0.3486          0.350902        0.351179        0.349428        0.349704        0.34928         0.351781        0.350725        0.350768        0.350239        0.350203        0.348963        0.349732        0.349093        0.352788        0.347814        0.351572        0.354059        0.354494        0.352878        0.353313        0.349588        0.349788        0.349988        0.32656         0.359391        0.306096        0.320221        0.366468        -0.153981       0.366831        0.367013        0.125998        0.125944        -0.0106292      0.125836        0.125782        0.125759        0.140393        0.125713        0.126021        0.126054        0.140366        0.126121        0.141048        0.125686        0.140594        0.140929        0.12544         0.0722989       0.44574         0.394598        0.343457        0.394587        0.019616        0.503257        0.586132        0.125787        -0.0226133      -0.0226147      0.352778        -0.0751285      -0.127641       -0.180153       0.345203        0.378428        0.375393        0.368714        0.364132        0.357022        0.365348        0.362828        0.358846        0.356305        0.35836         0.360693        0.358152        0.368342        0.355916        0.359783        0.361296        0.37254         0.371436        0.370331        0.37626         0.375211        0.374163        0.366081        0.372065        0.371258        0.376265        0.375458        0.374652        0.373943        0.373235        0.372526        0.3813          0.376161        0.380089        0.374951        0.378879        0.381576        0.381132        0.380688        0.380244        0.385719        0.381332        0.384783        0.390855        0.380589        0.3804          0.380211        0.389613        0.382225        0.380882        0.389229        0.390108        0.390861        0.381846        0.389835        0.381337        0.381763        0.390692        0.390727        -0.287039       0.391058        0.499649        0.391605        0.142634        0.142458        0.142281        0.142104        0.141927        0.143047        0.142877        0.142708        0.142539        0.142349        0.142158        0.141967        0.14222         0.143177        0.142985        0.142793        0.144101        0.143909        0.143718        0.143526        0.146319        0.146134        0.144494        0.144308        0.145578        0.145381        0.145183        0.144029        0.146382        0.14621         0.146037        0.145865        0.147128        0.146956        0.14724         0.147035        0.147718
