0.451741        0.441901        0.43968         0.43746         0.424586        0.440108        0.439148        0.436172        0.417287        0.411212        0.453896        0.441108        0.396589        0.400868        0.402858        0.395323        0.412794        0.399952        0.375666        0.397585        0.495171        0.490088        0.503314        0.489075        0.221521        0.453217        0.432698        0.417701        0.226071        0.239808        0.23986         0.237575        0.221512        0.240508        0.247407        0.254307        0.223839        0.23979         0.25021         0.223802        0.232941        0.240871        0.228347        0.254453        0.223754        0.114541        0.223738        0.221441        0.360269        0.194815        0.501836        0.537468        -0.0516289      0.016107        -0.266733       0.42459         0.419004        0.439548        0.426929        0.406823        0.41852         0.435099        0.422919        0.419801        0.484017        0.409959        0.406459        0.459011        0.496007        0.463155        0.476895        0.444043        0.476506        0.470887        0.468906        0.477027        0.47636         0.47192         0.469556        0.479062        0.397886        0.472921        0.473351        0.427112        0.221235        0.432034        0.431792        0.230417        0.234913        0.232633        0.225866        0.237229        0.221216        0.252322        0.25002         0.250045        0.45235         0.232794        0.465851        0.462302        0.43396         0.423545        0.479977        0.469006        0.440364        0.525561        0.519322        0.486665        0.462425        0.488269        0.482055        0.487285        0.465034        0.459314        0.509673        0.501691        0.521275        0.495435        0.515678        0.492126        0.512369        0.513952        0.514727        0.515982        0.517822        0.515147        0.515263        0.532684        0.53891         0.536356        0.534767        0.516264        0.535777        0.514747        0.536445        0.525959        0.538862        0.24012         0.233199        0.2217          0.235753        0.221965        0.226112        0.232923        0.226512        0.24127         0.248144        0.228758        0.235611        0.221278        0.239655        0.240968        0.226057        0.239746        0.235527        0.225928        0.230864        0.221688        0.228534        0.24824         0.248827        0.26035         0.260429        0.230728        0.228321        0.244413        0.253512        0.22149         0.250431        0.255056        0.257392        0.239652        0.231449        0.243755        0.25291         0.221654        0.25046         0.239812        0.221574        0.233091        0.230874        0.22625         0.221911        0.221864        0.24232         0.240154
0.428278        0.43979         0.428414        0.4503          0.434898        0.423691        0.441615        0.434467        0.40707         0.400995        0.449902        0.423582        0.397275        0.406843        0.396849        0.407453        0.408902        0.38608         0.381285        0.390224        0.478654        0.384165        0.477642        0.490869        0.237429        0.445669        0.437538        0.422541        0.228293        0.228241        0.223724        0.254365        0.230504        0.225937        0.249595        0.238185        0.235124        0.228245        0.235099        0.230526        0.232731        0.225928        0.237364        0.22813         0.218967        0.0972829       0.326029        0.361661        0.310929        0.1885          0.628109        0.529365        -0.128434       0.0700247       0.032214        -0.0147517      0.432681        0.445239        0.428042        0.42608         0.430312        0.440926        0.437808        0.432401        0.482019        0.415786        0.412286        0.466168        0.487776        0.457179        0.460845        0.446622        0.486318        0.477738        0.46983         0.46914         0.465833        0.475126        0.469891        0.466246        0.494783        0.482993        0.492734        0.423052        0.22795         0.232537        0.218813        0.225688        0.227876        0.221019        0.252192        0.228013        0.247587        0.223297        0.218683        0.227801        0.228106        0.455713        0.245279        0.238399        0.417443        0.423049        0.424078        0.441128        0.536207        0.429051        0.418235        0.40284         0.46357         0.466512        0.480897        0.477959        0.511966        0.469615        0.463895        0.46733         0.516497        0.534127        0.512098        0.517997        0.512909        0.528201        0.517555        0.509579        0.515412        0.515025        0.514639        0.519097        0.516486        0.530026        0.53441         0.519442        0.515815        0.518438        0.514195        0.514529        0.219498        0.219443        0.521163        0.228488        0.224165        0.22411         0.228323        0.247975        0.247984        0.25257         0.237649        0.226348        0.257838        0.224112        0.246265        0.247713        0.234959        0.248191        0.218852        0.223387        0.257396        0.219282        0.235283        0.252624        0.23269         0.248668        0.22133         0.219347        0.218898        0.219137        0.23517         0.218933        0.232677        0.250311        0.233197        0.228566        0.224469        0.235859        0.235806        0.219198        0.239038        0.252771        0.233556        0.245907        0.249451        0.235219        0.241061        0.254659        0.239757        0.253537
0.423878        0.426235        0.461388        0.467415        0.428042        0.428853        0.430349        0.432762        0.435861        0.449994        0.448197        0.462423        0.397961        0.393797        0.408807        0.396695        0.522661        0.405704        0.374749        0.375996        0.37349         0.496764        0.45755         0.344521        0.467982        0.453743        0.430935        0.427382        0.225825        0.218963        0.228188        0.235941        0.235696        0.240307        0.251784        0.21672         0.225869        0.21899         0.23271         0.236139        0.236085        0.234803        0.221062        0.250262        -0.00599937     0.275427        0.220979        0.369579        0.409788        0.323249        0.0350409       -0.0828106      0.182352        0.130809        0.0838429       -0.506152       0.429217        0.434908        0.421543        0.411005        0.424516        0.42636         0.421922        0.43365         0.49069         0.421125        0.485979        0.459592        0.4887          0.464336        0.446169        0.458356        0.46597         0.478424        0.475332        0.478869        0.466749        0.473754        0.469314        0.485804        0.414942        0.48162         0.416116        0.49597         0.22551         0.497943        0.508084        0.453184        0.216391        0.223266        0.225564        0.216288        0.245213        0.236045        0.236031        0.216551        0.450152        0.238279        0.459076        0.216404        0.475722        0.4727          0.476697        0.485119        0.430217        0.421689        0.51669         0.397767        0.543237        0.488256        0.48662         0.520643        0.521103        0.532487        0.471907        0.473053        0.521069        0.526423        0.532691        0.492116        0.515481        0.534946        0.50894         0.520316        0.51529         0.514903        0.525961        0.532441        0.537897        0.534247        0.534053        0.520128        0.530406        0.524418        0.52933         0.531953        0.217132        0.235387        0.233043        0.216966        0.224021        0.236371        0.235111        0.216989        0.217113        0.226075        0.228529        0.254642        0.223923        0.234505        0.255167        0.217258        0.216396        0.223219        0.234621        0.236587        0.245759        0.221333        0.230467        0.236409        0.241485        0.235046        0.23051         0.237145        0.246221        0.221225        0.230392        0.228115        0.247807        0.243277        0.235318        0.255295        0.245708        0.219724        0.236499        0.235638        0.247943        0.245655        0.21742         0.218986        0.246889        0.219012        0.218966        0.216739        0.237194        0.237242
0.451576        0.455731        0.440614        0.454815        0.450372        0.440565        0.43392         0.460886        0.445507        0.410016        0.453359        0.45614         0.425227        0.401349        0.395932        0.436441        0.410274        0.388277        0.48046         0.465329        0.461642        0.452824        0.453764        0.4597          0.463667        0.271715        0.459921        0.466792        0.242708        0.245029        0.240409        0.242694        0.242726        0.23334         0.233373        0.24485         0.242594        0.255895        0.23834         0.233277        0.24281         0.271176        0.259755        0.238608        0.243111        0.285634        0.240671        0.370631        0.413129        0.567054        0.603452        0.278658        0.243136        0.41492         0.0533158       0.429719        0.421844        0.41168         0.409672        0.417731        0.425878        0.432051        0.41536         0.430664        0.428651        0.476265        0.483981        0.464242        0.46096         0.455471        0.362537        0.446782        0.473761        0.361149        0.473968        0.470638        0.477924        0.470093        0.474808        0.468693        0.477373        0.475671        0.425788        0.522958        0.447561        0.410345        0.407814        0.472011        0.421063        0.235843        0.429734        0.440936        0.242668        0.238186        0.456535        0.242628        0.242723        0.260378        0.262661        0.25575         0.476836        0.473425        0.474685        0.471256        0.474887        0.48042         0.472212        0.459431        0.489391        0.412836        0.487766        0.482193        0.486782        0.524533        0.460575        0.478777        0.509661        0.188442        0.126031        0.503004        0.520856        0.52116         0.487299        0.498086        0.525297        0.515743        0.514587        0.527164        0.527784        0.51873         0.520232        0.531333        0.529154        0.535974        0.519907        0.524048        0.529337        0.519183        0.524055        0.524073        0.527458        0.518773        0.233947        0.247688        0.243118        0.531327        0.245424        0.240855        0.243085        0.23438         0.272331        0.253653        0.243342        0.234204        0.245532        0.252547        0.243276        0.234056        0.236799        0.253952        0.243535        0.25277         0.260655        0.238561        0.243218        0.254147        0.258679        0.236185        0.243441        0.245398        0.240868        0.25007         0.243252        0.240962        0.265216        0.234097        0.243251        0.23409         0.240964        0.243247        0.243247        0.238535        0.2384          0.266189        0.243787        0.234679
0.442804        0.467678        0.461279        0.45744         0.44443         0.450807        0.44803         0.456696        0.397942        0.38261         0.470765        0.431463        0.436533        0.389982        0.41203         0.41516         0.511487        0.390643        0.47813         0.465288        0.460362        0.4535          0.465166        0.458087        0.237938        0.253194        0.451235        0.260157        0.249453        0.235716        0.23791         0.231039        0.237709        0.253004        0.230909        0.242386        0.260351        0.235498        0.260229        0.235815        0.234173        0.250493        0.236311        0.242401        0.259718        0.277646        0.259765        0.235935        0.475762        0.46366         0.393274        0.301434        0.1877          0.261532        -0.0100137      -0.11917        0.424129        0.412572        0.411765        0.425681        0.429986        0.417113        0.435466        0.437061        0.487481        0.419135        0.473164        0.469664        0.372495        0.485636        0.482436        0.390725        0.396039        0.481861        0.48082         0.472913        0.474513        0.470073        0.483944        0.46806         0.610176        0.562554        0.485393        0.469599        0.474963        0.466037        0.468193        0.466496        0.475881        0.485266        0.231081        0.235645        0.237999        0.25101         0.240182        0.235591        0.249389        0.251026        0.244784        0.260168        0.257873        0.468585        0.468701        0.473283        0.395986        0.47558         0.485884        0.466035        0.50077         0.511804        0.490631        0.497275        0.52567         0.480457        0.460604        0.462784        0.529786        0.186068        0.123657        0.508127        0.530036        0.526215        0.516371        0.512972        0.521059        0.511643        0.512776        0.522469        0.52818         0.520963        0.518323        0.531705        0.531896        0.524441        0.519843        0.521503        0.520247        0.53216         0.53263         0.521158        0.522639        0.233794        0.530861        0.518956        0.242974        0.233828        0.258338        0.233844        0.258358        0.233646        0.260364        0.267543        0.243015        0.269506        0.267184        0.260699        0.231637        0.253785        0.231507        0.238878        0.245004        0.232026        0.240585        0.260683        0.251389        0.258209        0.251636        0.238287        0.245553        0.258457        0.24298         0.256262        0.251645        0.253908        0.265039        0.262724        0.259456        0.252495        0.243049        0.231607        0.252209        0.250875        0.265695        0.261312        0.258794        0.236368
0.447234        0.454401        0.438681        0.441922        0.436362        0.439455        0.464685        0.43731         0.376338        0.414319        0.393184        0.468831        0.390899        0.420849        0.402952        0.398992        0.412717        0.49093         0.478088        0.380084        0.462053        0.456969        0.467413        0.453979        0.453984        0.266716        0.23314         0.244579        0.230985        0.250887        0.228544        0.228539        0.232956        0.235278        0.228743        0.235344        0.248724        0.238029        0.255469        0.244787        0.238667        0.235503        0.248144        0.233064        0.248191        0.23829         0.255104        0.370675        0.549552        0.499091        0.454058        0.413958        0.427642        0.329182        -0.0847872      0.230673        0.423608        0.4226          0.42388         0.422872        0.435414        0.441587        0.422583        0.431045        0.488108        0.472942        0.485235        0.456341        0.365615        0.497066        0.496155        0.397577        0.487466        0.486425        0.494646        0.484343        0.467627        0.478501        0.477058        0.481773        0.42336         0.43768         0.442844        0.411662        0.457977        0.304974        0.255063        0.216596        0.242381        0.472857        0.444159        0.468738        0.255394        0.240025        0.255381        0.228554        0.22859         0.230865        0.248489        0.250772        0.446687        0.463746        0.474161        0.466155        0.476651        0.408514        0.416529        0.456618        0.507572        0.487172        0.504299        0.477032        0.53482         0.447072        0.477689        0.452225        0.543544        0.183694        0.540235        0.0657382       0.532349        0.522115        0.491927        0.512997        0.529298        0.52038         0.52128         0.512097        0.534989        0.518617        0.520555        0.520212        0.540444        0.533188        0.538088        0.535385        0.538273        0.526654        0.52941         0.520727        0.240508        0.528706        0.247391        0.235956        0.238253        0.238261        0.235981        0.2337          0.234153        0.229511        0.249003        0.253591        0.240762        0.247645        0.238506        0.229368        0.258193        0.234285        0.262731        0.267306        0.251052        0.264822        0.251127        0.240478        0.258069        0.231346        0.238622        0.257931        0.253656        0.265147        0.22907         0.240941        0.256019        0.240555        0.236031        0.260518        0.261446        0.252195        0.238269        0.256583        0.256487        0.247091        0.263224        0.261013        0.2609          0.249465
0.447352        0.436209        0.442124        0.444714        0.430171        0.467966        0.454313        0.442975        0.37849         0.386913        0.45662         0.472207        0.395553        0.392425        0.405318        0.409056        0.515175        0.490889        0.480336        0.380162        0.457944        0.461012        0.458217        0.455422        0.245858        0.244378        0.264265        0.470489        0.226249        0.246098        0.235199        0.246195        0.245806        0.23313         0.228269        0.230591        0.226046        0.246193        0.257082        0.23545         0.240872        0.227064        0.228379        0.238357        0.252684        0.245841        0.257309        0.235767        0.398142        0.564096        0.606951        0.541834        0.430813        -0.0320941      0.333845        -0.250407       0.433161        0.425771        0.421989        0.416887        0.429398        0.442437        0.420898        0.42274         0.428913        0.485013        0.405892        0.459257        0.393066        0.463137        0.505296        0.506674        0.414321        0.502433        0.499103        0.504928        0.467607        0.479189        0.467883        0.472599        0.444477        0.440486        0.447939        0.464547        0.460556        0.267636        0.476094        0.154081        0.233056        0.226176        0.242184        0.463196        0.230732        0.246032        0.228416        0.255174        0.24606         0.248295        0.228362        0.235215        0.444136        0.246029        0.477704        0.478435        0.522012        0.417605        0.489938        0.435924        0.434784        0.50816         0.480987        0.490467        0.532526        0.44012         0.480007        0.452254        0.545857        0.188187        0.524239        0.0519203       0.523219        0.524881        0.519646        0.530433        0.533596        0.522379        0.521223        0.510286        0.518459        0.539142        0.51821         0.520147        0.534055        0.51991         0.53232         0.519085        0.521025        0.514628        0.515097        0.531089        0.534931        0.231217        0.529421        0.235812        0.22637         0.226673        0.244992        0.245           0.251052        0.227076        0.251072        0.245258        0.233469        0.2269          0.236072        0.246575        0.253408        0.226604        0.226539        0.2465          0.233946        0.248614        0.262385        0.226559        0.228927        0.229346        0.240259        0.245256        0.244819        0.248949        0.260439        0.22894         0.226699        0.226699        0.240431        0.245009        0.261146        0.251896        0.263245        0.251706        0.241491        0.265326        0.249287        0.247003        0.240458        0.23871
0.460259        0.460271        0.455933        0.467748        0.457514        0.44883         0.45704         0.460445        0.450314        0.391353        0.369298        0.415065        0.416622        0.534984        0.379251        0.399147        0.409966        0.397005        0.384044        0.505974        0.461808        0.459486        0.452624        0.263377        0.461789        0.262692        0.464087        0.272489        0.252706        0.248176        0.252802        0.245984        0.252514        0.263547        0.243265        0.24328         0.252451        0.243721        0.243661        0.248177        0.252694        0.252531        0.243586        0.243609        0.252601        0.27256         0.197365        0.248093        0.408463        0.274821        0.270293        0.277111        0               0.272583        -0.206869       0.416834        0.418315        0.430834        0.425855        0.418865        0.421545        0.413752        0.409739        0.416478        0.42525         0.4068          0.406361        0.459885        0.458451        0.466053        0.410546        0.444894        0.42804         0.502995        0.48461         0.470096        0.476103        0.478462        0.480468        0.466708        0.477451        0.407054        0.352566        0.467445        0.252744        0.205122        0.475903        0.0961447       0.452387        0.44105         0.455588        0.491314        0.45147         0.243543        0.248114        0.26184         0.252679        0.248095        0.37616         0.25266         0.252704        0.4528          0.464482        0.26184         0.475935        0.433084        0.485098        0.447303        0.453029        0.446889        0.431634        0.495678        0.486665        0.263073        0.379913        0.317501        0.252801        0.280804        0.132556        0.272605        0.511601        0.272316        0.279037        0.267448        0.523386        0.529214        0.521807        0.494226        0.52801         0.535043        0.517132        0.51419         0.529413        0.519379        0.519432        0.53733         0.531063        0.535787        0.524181        0.532623        0.53048         0.530311        0.538398        0.524966        0.527768        0.525622        0.530823        0.262265        0.25312         0.273564        0.255429        0.25315         0.25308         0.268375        0.278442        0.262136        0.253213        0.275415        0.253185        0.268537        0.253269        0.270808        0.251056        0.251094        0.253119        0.25573         0.253027        0.278113        0.253303        0.273141        0.262177        0.270614        0.253115        0.262453        0.243908        0.248668        0.253219        0.269323        0.25379         0.273579        0.2536          0.262738        0.266889        0.244392        0.25367         0.27341
0.46914         0.459551        0.45979         0.452889        0.460042        0.445364        0.451286        0.453038        0.385284        0.361987        0.465983        0.388184        0.390984        0.522974        0.39234         0.417102        0.393379        0.380418        0.367458        0.36823         0.457662        0.452825        0.279122        0.452834        0.265368        0.453108        0.260292        0.269913        0.25215         0.243043        0.278533        0.269763        0.26107         0.240732        0.249903        0.254496        0.276996        0.250399        0.243471        0.250277        0.247759        0.241084        0.250263        0.269774        0.276682        0.250165        0.250188        0.250211        0.267765        0.245829        0.61615         0.270019        0.413545        0.265478        -0.277065       -0.386221       0.419228        0.409265        0.400816        0.419608        0.414054        0.422853        0.412654        0.424087        0.418464        0.413342        0.403941        0.45846         0.495009        0.466917        0.450262        0.416061        0.479298        0.411648        0.480004        0.472356        0.485887        0.47164         0.487502        0.470505        0.403606        0.468181        0.299206        0.237852        0.187941        0.474623        0.469079        0.477389        0.450139        0.446765        0.445281        0.459244        0.257081        0.465615        0.441622        0.250196        0.241088        0.24566         0.243311        0.245647        0.257085        0.450904        0.459093        0.250199        0.427751        0.435939        0.451299        0.44787         0.444441        0.436032        0.429912        0.484738        0.260844        0.444527        0.457036        0.455431        0.272933        0.264697        0.278285        0.266696        0.260909        0.260765        0.276641        0.265052        0.534671        0.508763        0.501356        0.50997         0.537718        0.531855        0.515181        0.522945        0.534027        0.531325        0.536327        0.531973        0.537791        0.533359        0.522763        0.527283        0.517469        0.515859        0.532558        0.534798        0.530601        0.520092        0.241436        0.241446        0.280077        0.261826        0.248343        0.241487        0.280316        0.259978        0.270522        0.280496        0.279797        0.26377         0.261496        0.248392        0.248499        0.259981        0.263725        0.259692        0.241857        0.2441          0.270578        0.275569        0.241294        0.265761        0.272998        0.252878        0.241481        0.243744        0.252873        0.266209        0.241562        0.268561        0.260276        0.25272         0.242151        0.260315        0.251241        0.264518        0.241994        0.266078
0.461903        0.457566        0.454492        0.460334        0.451999        0.451054        0.445531        0.463762        0.378484        0.46704         0.374007        0.381384        0.38158         0.387822        0.374805        0.364394        0.385947        0.483525        0.453222        0.349354        0.465385        0.453559        0.463816        0.453001        0.45815         0.258203        0.271925        0.26276         0.251978        0.256603        0.250314        0.267302        0.260412        0.238216        0.249676        0.238247        0.251996        0.272207        0.269793        0.269771        0.258033        0.240895        0.27185         0.238653        -0.00453348     0.271925        0.21572         0.304103        0.258348        0.258372        0.269816        0.72401         -0.135814       0.422636        -0.349549       -0.454128       0.433128        0.402706        0.401729        0.426873        0.419945        0.423252        0.406531        0.405831        0.49147         0.4166          0.402622        0.46619         0.490631        0.490704        0.394926        0.482986        0.479288        0.38896         0.466472        0.364929        0.470087        0.481194        0.476279        0.473555        0.34338         0.467274        0.236692        0.200514        0.134582        0.0961145       0.440811        -0.0151512      0.435255        0.439323        0.448707        0.453514        0.238571        0.245431        0.454203        0.46466         0.243123        0.252272        0.465234        0.256837        0.453816        0.214692        0.454909        0.0996803       0.42374         0.42964         0.43554         0.434573        0.449628        0.454909        0.42819         0.42207         0.25847         0.474687        0.480011        0.453647        0.238898        0.258948        0.269044        0.0562421       0.258514        0.258369        0.258224        0.271812        0.528733        0.525313        0.505656        0.505116        0.532846        0.521997        0.51552         0.514867        0.52033         0.519452        0.533238        0.534772        0.534185        0.524971        0.527202        0.536515        0.519038        0.522005        0.524971        0.534804        0.238907        0.528295        0.518528        0.535228        0.250163        0.261532        0.252472        0.248133        0.258757        0.270927        0.265744        0.254681        0.257388        0.243771        0.26817         0.252768        0.25017         0.248344        0.26811         0.25893         0.272635        0.261214        0.239291        0.261582        0.250643        0.252595        0.258747        0.239339        0.272565        0.261071        0.2414          0.255107        0.243637        0.253875        0.240047        0.249107        0.248812        0.248994        0.266539        0.26864         0.277608        0.253329
0.44574         0.451004        0.452954        0.469215        0.450774        0.456743        0.451221        0.460571        0.39686         0.455206        0.461341        0.482906        0.400271        0.368946        0.488545        0.480423        0.457247        0.466938        0.48823         0.469946        0.264836        0.454028        0.456321        0.457745        0.467775        0.260205        0.269349        0.255606        0.235784        0.238722        0.245636        0.247973        0.235684        0.242566        0.251737        0.255918        0.258307        0.274306        0.269566        0.264966        0.236105        0.242995        0.245176        0.269433        0.236068        0.25815         0.205442        0.316713        0.269577        0.116881        0.623061        0.267289        -0.20601        -0.3083         -0.41059        0.428727        0.431582        0.423049        0.42665         0.414053        0.418625        0.425137        0.423144        0.427862        0.478601        0.419858        0.486797        0.460187        0.472522        0.447339        0.449701        0.493005        0.398888        0.389161        0.49095         0.360552        0.470309        0.46689         0.474212        0.466679        0.276289        0.226378        0.192488        0.126556        0.0903775       0.0267339       -0.0185995      0.434337        0.436855        0.477952        0.437314        0.440919        0.245237        0.457419        0.450762        0.450992        0.242983        0.423919        0.240681        0.254408        0.236091        0.238374        0.240656        0.468068        0.429536        0.432495        0.443277        0.494294        0.445575        0.453187        0.435541        0.438658        0.48589         0.439779        0.255806        0.460663        0.236524        0.256552        0.257515        0.26084         0.256118        0.262839        0.271849        0.255683        0.520267        0.525977        0.520244        0.504839        0.537791        0.534821        0.521457        0.534839        0.532298        0.538264        0.519542        0.536623        0.522002        0.519859        0.521784        0.522428        0.530168        0.523573        0.52654         0.515774        0.514964        0.520476        0.535144        0.254739        0.238425        0.236449        0.272742        0.241046        0.27            0.243009        0.267831        0.263886        0.236588        0.241151        0.26794         0.250278        0.270254        0.258786        0.241323        0.270181        0.263294        0.25874         0.272748        0.261075        0.265338        0.254694        0.241395        0.261225        0.26322         0.258593        0.261254        0.260782        0.265732        0.26473         0.237753        0.255801        0.257583        0.274038        0.257829        0.273043        0.268026        0.268307
0.461355        0.451453        0.451661        0.456447        0.460396        0.431746        0.430338        0.468452        0.455021        0.464686        0.469775        0.500885        0.407203        0.453043        0.476536        0.461547        0.458002        0.458918        0.451856        0.455648        0.461141        0.27361         0.266816        0.287382        0.262217        0.284854        0.253041        0.269052        0.26226         0.275681        0.283302        0.278647        0.262357        0.269183        0.25573         0.257979        0.262516        0.255807        0.269338        0.273302        0.262606        0.281296        0.260065        0.271551        0.262438        0.282957        0.264782        0.271639        0.262475        0.284866        0.260186        0.260184        0.262473        0.284967        0.264763        0.411063        0.414664        0.416924        0.411371        0.417261        0.418572        0.415583        0.412791        0.414183        0.421372        0.473347        0.39773         0.463402        0.454996        0.448203        0.450564        0.450637        0.463859        0.456211        0.457718        0.455774        0.476142        0.466881        0.470676        0.466669        0.476565        0.463834        0.463634        0.468012        0.475336        0.460593        0.471039        0.469352        0.470045        0.454754        0.472453        0.451147        0.456076        0.454737        0.456459        0.445964        0.455311        0.498777        0.471114        0.511671        0.262648        0.218875        0.467139        0.466173        0.474361        0.475683        0.578854        0.451728        0.450762        0.44968         0.431531        0.469787        0.484647        0.255866        0.458549        0.271597        0.262297        0.254157        0.254012        0.269888        0.262877        0.255866        0.288933        0.282078        0.515339        0.282803        0.275948        0.285114        0.526657        0.540706        0.531505        0.508343        0.529267        0.526235        0.518819        0.518244        0.531618        0.531104        0.522811        0.536485        0.53185         0.526395        0.536915        0.523596        0.530649        0.533873        0.540342        0.536569        0.526908        0.279991        0.289017        0.282021        0.263412        0.274896        0.290789        0.276429        0.263172        0.283228        0.277944        0.258623        0.263195        0.272326        0.28058         0.273395        0.263293        0.253977        0.28597         0.283602        0.263201        0.27011         0.292757        0.290208        0.26303         0.253825        0.285779        0.283544        0.263229        0.272498        0.264838        0.273526        0.262776        0.28119         0.261611        0.262214        0.263525        0.261033
0.447135        0.458787        0.46954         0.447759        0.417137        0.427173        0.425764        0.426645        0.366317        0.432983        0.496909        0.395314        0.455115        0.486715        0.474015        0.364592        0.455159        0.44783         0.456201        0.446261        0.28017         0.448215        0.252797        0.250497        0.266624        0.28002         0.250465        0.259726        0.280079        0.277713        0.268961        0.250487        0.268913        0.252852        0.261967        0.259638        0.262509        0.270916        0.260175        0.270826        0.271912        0.285762        0.269857        0.25084         0.262326        0.25541         0.260018        0.262258        0.273209        0.289218        0.25079         0.250806        0.412406        0.277863        0.419803        0.262236        0.424715        0.412294        0.411317        0.400794        0.412489        0.421227        0.42033         0.416149        0.490682        0.482658        0.467718        0.38719         0.475001        0.470399        0.448431        0.446215        0.446349        0.488991        0.440502        0.452456        0.477741        0.475096        0.470413        0.436135        0.464867        0.467463        0.464056        0.463857        0.450031        0.459895        0.463506        0.460251        0.482258        0.467355        0.46241         0.478917        0.504963        0.503473        0.499694        0.498205        0.494426        0.454165        0.368307        0.514911        0.473441        0.457004        0.462904        0.468804        0.634691        0.429052        0.517357        0.455964        0.411467        0.442857        0.429809        0.493719        0.251348        0.48134         0.45915         0.255491        0.255346        0.25749         0.466618        0.472094        0.275575        0.279659        0.270515        0.255469        0.537386        0.271054        0.271065        0.277943        0.528357        0.520838        0.517896        0.498599        0.531574        0.524257        0.518955        0.518262        0.540561        0.521979        0.522378        0.524253        0.526616        0.522811        0.539885        0.538961        0.515348        0.52086         0.519507        0.515865        0.521378        0.254056        0.26556         0.275134        0.288737        0.270317        0.280926        0.260613        0.251518        0.253801        0.270935        0.278565        0.282782        0.271306        0.28244         0.260691        0.251698        0.258588        0.282498        0.289286        0.267527        0.28072         0.290217        0.283087        0.28009         0.254072        0.251232        0.269492        0.257459        0.280286        0.269129        0.283112        0.28309         0.273858        0.259826        0.283147        0.258771        0.251934
0.462937        0.4501          0.449621        0.448227        0.41943         0.438621        0.468506        0.428938        0.370961        0.37376         0.488093        0.504625        0.407335        0.488771        0.480649        0.369235        0.463064        0.454464        0.446813        0.446028        0.279883        0.250232        0.45149         0.252499        0.266221        0.261632        0.282072        0.247878        0.279822        0.250279        0.25941         0.252519        0.268794        0.266274        0.272447        0.269111        0.279929        0.262299        0.255411        0.284372        0.264334        0.271917        0.275405        0.285883        0.279133        0.262204        0.255329        0.257455        0.262023        0.27526         0.273084        0.286678        0.413303        0.273047        0.255131        0.25742         0.406994        0.420953        0.43142         0.412074        0.413358        0.424188        0.407811        0.418346        0.486641        0.399654        0.472118        0.454102        0.463615        0.448513        0.450875        0.44637         0.447698        0.499496        0.455544        0.455889        0.482741        0.475437        0.478628        0.468199        0.464782        0.467378        0.465397        0.479437        0.456967        0.45829         0.459612        0.479827        0.496334        0.481771        0.469242        0.488756        0.445004        0.490692        0.478499        0.450471        0.439375        0.414172        0.356666        0.306027        0.264543        0.197882        0.472401        0.466857        0.430585        0.443351        0.449251        0.421225        0.519733        0.441135        0.425798        0.426482        0.248974        0.41867         0.43559         0.451279        0.256376        0.456596        0.457495        0.472126        0.253508        0.268108        0.268426        0.270726        0.277604        0.275326        0.279915        0.282215        0.531633        0.522537        0.524174        0.500299        0.538458        0.51943         0.525721        0.520568        0.538581        0.522466        0.52931         0.524069        0.519207        0.524927        0.527157        0.540831        0.530417        0.524486        0.529998        0.526328        0.534158        0.523993        0.268376        0.532386        0.278685        0.269401        0.281591        0.283751        0.258355        0.273019        0.26274         0.258338        0.277783        0.265354        0.268564        0.271092        0.258415        0.268693        0.282347        0.258483        0.253542        0.265029        0.251339        0.273983        0.25626         0.27377         0.253872        0.260688        0.259461        0.250419        0.248244        0.252935        0.255337        0.250002        0.256681        0.257064        0.260884        0.249226
0.460841        0.451925        0.45012         0.457194        0.421723        0.431759        0.428062        0.462845        0.368738        0.478432        0.485809        0.367322        0.510393        0.490827        0.386578        0.383034        0.456232        0.45595         0.449335        0.452662        0.272729        0.272749        0.263666        0.245345        0.250089        0.259057        0.263623        0.254458        0.272699        0.272622        0.259153        0.247685        0.270773        0.247654        0.281438        0.283832        0.259846        0.24838         0.26209         0.276937        0.257355        0.248242        0.266063        0.269749        0.259812        0.248359        0.259527        0.248074        0.254931        0.25718         0.265979        0.270431        0.259469        0.284252        0.245737        0.413754        0.409092        0.414953        0.413978        0.41981         0.417846        0.423113        0.41562         0.414502        0.407502        0.48068         0.47914         0.454713        0.446307        0.450957        0.446453        0.448815        0.446758        0.465538        0.450067        0.457443        0.483163        0.477553        0.477688        0.479871        0.468676        0.465005        0.467601        0.465619        0.470504        0.46584         0.460296        0.472876        0.478367        0.439764        0.469926        0.482573        0.488555        0.441569        0.467399        0.432797        0.462326        0.45242         0.453145        0.463025        0.442633        0.4554          0.458423        0.471777        0.536874        0.427897        0.489476        0.48851         0.443307        0.511863        0.219203        0.420182        0.2466          0.246455        0.26462         0.45188         0.265656        0.277111        0.267967        0.247874        0.277253        0.257833        0.262266        0.248388        0.265854        0.27731         0.532838        0.28191         0.547672        0.506668        0.521296        0.504287        0.526901        0.519578        0.532885        0.518403        0.533755        0.524785        0.540748        0.531357        0.532397        0.518965        0.524326        0.540288        0.522598        0.520937        0.519891        0.527693        0.530917        0.266195        0.516766        0.256422        0.270385        0.274833        0.265548        0.269997        0.248808        0.266576        0.275793        0.253369        0.282218        0.260626        0.282418        0.249133        0.262354        0.268543        0.246866        0.251467        0.271325        0.271055        0.282847        0.268844        0.246954        0.26611         0.277608        0.246094        0.275739        0.270829        0.270807        0.245782        0.271583        0.266419        0.277785        0.265472        0.27814         0.271113
0.459358        0.419313        0.431049        0.456894        0.458526        0.583365        0.441799        0.489104        0.445848        0.401709        0.367923        0.318891        0.272337        0.232555        0.188195        0.123236        0.458932        0.458752        0.461315        0.285089        0.458995        0.279328        0.463541        0.263346        0.272521        0.286565        0.293328        0.27258         0.272442        0.279231        0.279773        0.263055        0.272752        0.285575        0.300505        0.286702        0.27233         0.27951         0.276817        0.301451        0.272509        0.273981        0.271809        0.276503        0.272042        0.2729          0.290099        0.283175        0.272532        0.274808        0.272607        0.277072        0.272582        0.27257         0.283112        0.283105        0.411077        0.427266        0.394104        0.41839         0.415096        0.415426        0.414659        0.404063        0.4176          0.406118        0.401502        0.454561        0.454374        0.470571        0.447458        0.438278        0.463629        0.454668        0.455954        0.445234        0.46159         0.449114        0.483808        0.453915        0.474876        0.467535        0.4699          0.465123        0.475674        0.468653        0.489011        0.460643        0.467311        0.47547         0.471837        0.455748        0.473011        0.464655        0.488816        0.466253        0.47897         0.446431        0.489575        0.50947         0.45776         0.484416        0.480608        0.437181        0.472992        0.429299        0.376354        0.520762        0.270463        0.210651        0.476785        0.109339        0.482244        0.480854        0.432548        0.50325         0.451184        0.450964        0.283308        0.476768        0.27246         0.272472        0.292023        0.265538        0.272416        0.288481        0.283793        0.505175        0.519857        0.49241         0.50777         0.493377        0.529196        0.519466        0.510763        0.520491        0.531497        0.520613        0.523974        0.523801        0.532585        0.523161        0.541259        0.523253        0.53282         0.52914         0.527005        0.537058        0.530717        0.27304         0.277488        0.272781        0.272652        0.26898         0.281549        0.265398        0.273169        0.273232        0.294333        0.289763        0.272921        0.285244        0.279723        0.270792        0.273049        0.275259        0.266653        0.290477        0.273362        0.29104         0.271152        0.271191        0.273206        0.300393        0.264159        0.293514        0.272988        0.273142        0.286636        0.302654        0.273076        0.275907        0.264386        0.264308        0.273386        0.273409
0.415517        0.458974        0.459182        0.470127        0.426309        0.547025        0.489595        0.46224         0.417463        0.361659        0.32396         0.275685        0.22629         0.172775        0.46689         0.0817667       0.464172        0.452712        0.450408        0.449193        0.29674         0.468671        0.461789        0.260885        0.296618        0.293136        0.276684        0.270118        0.279747        0.261359        0.299122        0.26047         0.260106        0.29226         0.263627        0.290922        0.277067        0.277022        0.282828        0.274644        0.280334        0.277004        0.283197        0.267104        0.276375        0.265854        0.268021        0.27143         0.280651        0.285264        0.265567        0.270027        0.413528        0.26553         0.285227        0.260927        0.419816        0.395851        0.414535        0.41211         0.423618        0.422326        0.412255        0.40963         0.482802        0.406677        0.399772        0.392868        0.465118        0.437826        0.464241        0.445953        0.463063        0.458512        0.454405        0.46182         0.463281        0.490237        0.473183        0.439822        0.472079        0.466023        0.467103        0.475097        0.459763        0.475661        0.470886        0.477197        0.456682        0.46391         0.470363        0.489617        0.475898        0.491122        0.472759        0.462035        0.496545        0.438152        0.436588        0.501191        0.490533        0.489154        0.474759        0.431192        0.423036        0.370091        0.51535         0.277933        0.218121        0.15831         0.47768         0.48136         0.427022        0.484038        0.439447        0.508723        0.272231        0.2901          0.462475        0.476242        0.272065        0.291949        0.272299        0.265233        0.27211         0.506126        0.281199        0.500226        0.537549        0.494328        0.500533        0.528256        0.543116        0.509204        0.523655        0.505773        0.521204        0.523065        0.52196         0.526266        0.526043        0.537428        0.525114        0.53731         0.532543        0.521863        0.52457         0.525096        0.280015        0.525336        0.526298        0.534173        0.279497        0.28049         0.264204        0.280507        0.28967         0.289678        0.280532        0.275025        0.285221        0.280544        0.270446        0.280346        0.29056         0.288235        0.273372        0.288162        0.261771        0.268295        0.288506        0.290766        0.290737        0.288442        0.27081         0.288429        0.272712        0.290907        0.300059        0.290934        0.290359        0.261298        0.285837        0.26572         0.295048        0.290444
0.432611        0.45829         0.460255        0.460464        0.456094        0.490085        0.446385        0.407268        0.366838        0.315295        0.273887        0.229181        0.456306        0.466379        0.448846        0.459878        0.464708        0.464693        0.450944        0.455506        0.258364        0.455475        0.294217        0.282417        0.294157        0.272195        0.260771        0.293846        0.258118        0.263467        0.292074        0.270178        0.280705        0.259855        0.265734        0.274995        0.258558        0.272246        0.291784        0.266903        0.277801        0.257471        0.27132         0.258729        0.261221        0.271431        0.267842        0.258564        0.278232        0.280513        0.272149        0.280498        0.260791        0.422399        0.411092        0.258465        0.397597        0.402358        0.401353        0.408346        0.418934        0.422737        0.41394         0.412722        0.494455        0.404948        0.398043        0.391138        0.466507        0.444523        0.455942        0.451339        0.473273        0.464439        0.458272        0.458781        0.463069        0.477323        0.452958        0.455393        0.467687        0.467159        0.459143        0.475916        0.449134        0.467994        0.47336         0.475451        0.473016        0.453783        0.463802        0.476699        0.491138        0.476495        0.469077        0.46293         0.431438        0.476749        0.432887        0.49749         0.506736        0.499186        0.481786        0.480407        0.494355        0.457486        0.280825        0.223302        0.163491        0.463029        0.0553116       0.00236636      0.41561         0.476906        0.497276        0.50733         0.258315        0.265192        0.462507        0.258349        0.264894        0.280321        0.260671        0.277812        0.258072        0.26495         0.271827        0.262683        0.541141        0.536517        0.536471        0.490346        0.512223        0.522072        0.527086        0.513942        0.5364          0.522395        0.5228          0.52695         0.523444        0.536908        0.531834        0.534711        0.527555        0.530608        0.524424        0.522504        0.523809        0.261554        0.277446        0.540551        0.259817        0.267903        0.268714        0.259429        0.270744        0.291899        0.278174        0.287338        0.258943        0.292793        0.265746        0.258848        0.27567         0.288087        0.265647        0.260991        0.283772        0.265791        0.292868        0.273185        0.272774        0.288226        0.281354        0.292962        0.277227        0.272628        0.268028        0.258851        0.286063        0.286091        0.297129        0.268582        0.27766         0.273106
0.453172        0.457957        0.45904         0.469817        0.433184        0.474069        0.437234        0.456324        0.315786        0.274143        0.242124        0.459039        0.456649        0.0852591       0.467423        -0.00803827     0.451512        0.282468        0.466567        0.457397        0.291532        0.255922        0.267386        0.284859        0.262848        0.260578        0.269226        0.272062        0.273843        0.255455        0.273688        0.276324        0.285841        0.256292        0.275806        0.255131        0.256071        0.26747         0.291586        0.275678        0.282658        0.293649        0.289143        0.256241        0.255288        0.266609        0.256219        0.275772        0.262956        0.26981         0.256065        0.267496        0.267483        0.260605        0.402658        0.275717        0.409761        0.4225          0.426073        0.409046        0.414916        0.417104        0.418626        0.408704        0.484419        0.481742        0.466032        0.389409        0.467896        0.452198        0.454461        0.449859        0.458641        0.460601        0.462789        0.470165        0.474596        0.451332        0.486265        0.473788        0.467872        0.476828        0.462251        0.459129        0.445371        0.475675        0.489566        0.477925        0.472243        0.48455         0.460039        0.470648        0.485088        0.471542        0.473453        0.481038        0.418582        0.423884        0.431475        0.499613        0.487709        0.466869        0.48724         0.46383         0.32293         0.449348        0.452406        0.503214        0.444715        0.486046        0.472605        -0.0293764      0.429375        0.48009         0.426594        0.503648        0.292131        0.258142        0.271886        0.280357        0.264588        0.265053        0.269642        0.294651        0.292252        0.257778        0.271522        0.280478        0.533289        0.53782         0.535486        0.528573        0.528391        0.535831        0.534115        0.522224        0.52283         0.536121        0.52425         0.527112        0.523451        0.530049        0.529836        0.524609        0.518228        0.52562         0.51928         0.523352        0.527197        0.256955        0.26827         0.270429        0.271192        0.525582        0.261779        0.258468        0.274594        0.284964        0.284972        0.294136        0.267976        0.267999        0.274779        0.278672        0.266368        0.283115        0.285367        0.261555        0.270632        0.266093        0.288075        0.280877        0.263404        0.271997        0.25603         0.261278        0.256371        0.267793        0.290385        0.267749        0.270951        0.270873        0.275374        0.276735        0.256909        0.268376
0.4554          0.565915        0.541241        0.486812        0.445079        0.421442        0.454817        0.328606        0.281735        0.238037        0.185185        0.146065        0.456525        0.452004        0.310614        0.45552         0.457865        0.299314        0.46635         0.27541         0.282246        0.277638        0.284474        0.299269        0.282367        0.299252        0.30808         0.27519         0.282782        0.282819        0.273402        0.301095        0.282632        0.287139        0.310808        0.305782        0.282914        0.307418        0.307312        0.278677        0.282459        0.275095        0.275166        0.293337        0.282174        0.284863        0.273362        0.275593        0.282403        0.277818        0.27781         0.273285        0.282432        0.284714        0.509055        0.402116        0.408193        0.399484        0.0996089       0.407278        0.412296        0.402374        0.416896        0.41613         0.415363        0.48255         0.395185        0.407537        0.45114         0.485019        0.348032        0.469744        0.458074        0.448901        0.455129        0.449617        0.458633        0.455391        0.468931        0.461743        0.471601        0.453162        0.465358        0.437091        0.474933        0.466209        0.473823        0.462249        0.473207        0.441281        0.471724        0.459046        0.469429        0.449403        0.469691        0.442107        0.475707        0.467338        0.49388         0.47725         0.481719        0.475763        0.484662        0.467384        0.487234        0.513153        0.469261        0.477393        0.470675        0.515385        0.459815        0.512055        0.478662        0.428197        0.476383        0.448732        0.451056        0.457958        0.460282        0.469472        0.282352        0.308762        0.301795        0.279733        0.282792        0.282682        0.301609        0.29246         0.512186        0.535121        0.304899        0.29804         0.523984        0.531416        0.500932        0.509682        0.530846        0.530419        0.512617        0.511568        0.532557        0.525478        0.520524        0.538216        0.533406        0.524201        0.526646        0.531902        0.532359        0.516683        0.529644        0.535153        0.528633        0.293711        0.302724        0.284879        0.282598        0.278029        0.299866        0.284912        0.282565        0.294057        0.286944        0.283061        0.282961        0.298343        0.290045        0.280854        0.283106        0.2938          0.293742        0.283019        0.283223        0.300601        0.302893        0.280916        0.283248        0.302994        0.293823        0.302787        0.28326         0.294073        0.283093        0.305486        0.283149        0.30559
0.56631         0.431511        0.438702        0.440232        0.419548        0.374198        0.322134        0.275359        0.459573        0.447748        0.456522        0.458429        0.462625        0.449982        0.453675        0.445459        0.294606        0.292209        0.305942        0.27299         0.280091        0.277772        0.290012        0.272869        0.296863        0.283079        0.303713        0.272793        0.297098        0.294774        0.275605        0.303861        0.290062        0.296597        0.287632        0.271541        0.298932        0.270455        0.270569        0.295543        0.272434        0.297716        0.272577        0.271009        0.30208         0.277992        0.302558        0.2733          0.273243        0.279981        0.273228        0.295357        0.413017        0.277662        0.28681         0.27307         0.228821        0.115016        0.0126543       -0.082841       0.413008        0.403086        0.405947        0.421505        0.49618         0.407217        0.478291        0.389328        0.458114        0.454091        0.471585        0.460514        0.453422        0.467136        0.449205        0.466736        0.458081        0.454838        0.440672        0.454325        0.481439        0.45389         0.463798        0.473355        0.462157        0.478046        0.469638        0.469508        0.447034        0.44104         0.455644        0.493026        0.48882         0.449162        0.481103        0.470379        0.475676        0.469595        0.458793        0.45137         0.487211        0.486955        0.477587        0.474646        0.486801        0.489801        0.489363        0.500369        0.48333         0.490488        0.452586        0.511837        0.417123        0.477667        0.439496        0.491469        0.289587        0.271167        0.465398        0.277813        0.278593        0.279881        0.270616        0.297056        0.295384        0.271176        0.29082         0.277822        0.290834        0.302285        0.49905         0.30001         0.534004        0.52771         0.503068        0.504666        0.540874        0.514538        0.515778        0.52408         0.529703        0.54175         0.539249        0.524915        0.523148        0.524538        0.531249        0.525061        0.515156        0.522954        0.517019        0.517951        0.523646        0.270938        0.28239         0.290947        0.270963        0.270754        0.282206        0.289081        0.285404        0.271572        0.279736        0.294115        0.293559        0.271239        0.271202        0.289476        0.285202        0.280853        0.287432        0.283084        0.283114        0.273952        0.285331        0.289961        0.287666        0.280797        0.273928        0.283091        0.283088        0.273961        0.273722        0.282905        0.297001        0.298508
0.446058        0.485313        0.457515        0.471539        0.3724          0.324818        0.452385        0.241137        0.195322        0.147047        0.112504        0.0642291       0.29898         0.465564        0.451496        0.458027        0.277528        0.299053        0.292186        0.298981        0.301342        0.268221        0.286788        0.277316        0.277572        0.299034        0.280673        0.29673         0.277734        0.273637        0.271386        0.294202        0.268729        0.268658        0.276189        0.268518        0.278337        0.302402        0.272638        0.293035        0.285866        0.272205        0.275297        0.28608         0.278044        0.302527        0.270015        0.293637        0.300312        0.270641        0.272922        0.286949        0.413737        0.292509        0.272893        0.296712        0.420112        0.421375        -0.0605678      0.41328         0.408022        0.403461        0.409338        0.418287        0.419248        0.405726        0.478399        0.413711        0.46051         0.386783        0.452237        0.469042        0.458087        0.45922         0.452711        0.448351        0.481449        0.458864        0.453445        0.474012        0.493275        0.473796        0.446583        0.449992        0.481606        0.465455        0.469717        0.467857        0.469643        0.468226        0.473924        0.474547        0.469891        0.473109        0.463519        0.45966         0.473355        0.494923        0.472638        0.44676         0.491892        0.497379        0.471635        0.487756        0.482939        0.450953        0.445938        0.501085        0.491454        0.456798        0.463956        0.502464        0.423093        0.483502        0.428591        0.492728        0.290047        0.456747        0.296713        0.465972        0.271665        0.278421        0.2797          0.292417        0.306509        0.275692        0.296908        0.290508        0.292804        0.52795         0.292817        0.292824        0.532587        0.517386        0.505205        0.504513        0.516459        0.522276        0.524758        0.513312        0.527439        0.534093        0.527015        0.523266        0.521995        0.542563        0.524408        0.525087        0.514561        0.53084         0.518713        0.528125        0.279893        0.268458        0.268466        0.286785        0.274981        0.268123        0.288039        0.287897        0.277303        0.277204        0.270239        0.271131        0.27561         0.268707        0.284692        0.307346        0.26927         0.278114        0.2715          0.285203        0.300212        0.291108        0.285231        0.271492        0.269197        0.291206        0.300345        0.291174        0.287184        0.304876        0.269239        0.298189        0.268985        0.293715
0.487996        0.462567        0.418048        0.38193         0.322327        0.284517        0.467191        0.21228         0.154404        0.0992624       0.461318        0.0141561       0.447698        0.450515        0.458472        0.446693        0.289767        0.285153        0.287442        0.296633        0.277584        0.277554        0.277215        0.272607        0.285201        0.272782        0.285153        0.296621        0.278164        0.278202        0.285105        0.284628        0.285139        0.285154        0.285376        0.29434         0.283636        0.281461        0.267121        0.285545        0.283277        0.285833        0.299556        0.297257        0.286049        0.265194        0.286527        0.286765        0.290973        0.286207        0.265871        0.277308        0.484957        0.382596        0.287559        0.287372        0.0755108       -0.0222732      0.403229        0.409415        0.408734        0.405764        0.419291        0.40898         0.408602        0.406267        0.40121         0.490161        0.407116        0.391468        0.380397        0.478304        0.450668        0.450965        0.450389        0.454827        0.493622        0.455534        0.443625        0.47474         0.48909         0.450769        0.470731        0.485021        0.463816        0.483596        0.469734        0.481736        0.477278        0.477212        0.462027        0.481245        0.479601        0.4685          0.476462        0.474936        0.48019         0.482105        0.489757        0.483676        0.48803         0.48995         0.47255         0.488471        0.495561        0.491232        0.443431        0.494935        0.490424        0.489554        0.468835        0.475278        0.423632        0.425237        0.482447        0.503141        0.266556        0.452708        0.292064        0.289675        0.266116        0.28569         0.300818        0.266696        0.285591        0.292464        0.292269        0.292276        0.292485        0.285625        0.285632        0.292505        0.540696        0.526272        0.500475        0.531755        0.53804         0.525436        0.515233        0.538313        0.526727        0.521713        0.524752        0.532282        0.524203        0.522176        0.53617         0.524589        0.529943        0.530918        0.518117        0.51676         0.28428         0.275133        0.523289        0.538796        0.29271         0.272877        0.266019        0.289995        0.283828        0.272285        0.304875        0.295619        0.266212        0.28632         0.271156        0.293213        0.293245        0.286374        0.286368        0.295499        0.273561        0.286361        0.280494        0.293234        0.271312        0.286318        0.304751        0.273606        0.280102        0.275552        0.2828          0.282475        0.267128        0.273968
0.443181        0.40471         0.373169        0.337051        0.291778        0.241927        0.217252        0.171979        0.454561        0.446462        0.443899        0.315934        0.456087        0.320099        0.304539        0.31371         0.291925        0.310297        0.289636        0.31729         0.291925        0.319596        0.308623        0.313155        0.291958        0.282859        0.289654        0.296575        0.29199         0.31956         0.30425         0.315738        0.292127        0.302739        0.292036        0.296629        0.292067        0.320708        0.285837        0.288019        0.292491        0.301813        0.306869        0.299326        0.292532        0.290861        0.281944        0.282183        0.291577        0.316229        0.314816        0.320826        0.292327        0.294428        0.309037        0.0932065       0               0.30443         0.395749        0.30441         0.409446        0.423368        0.411243        0.395969        0.41217         0.397462        0.39667         0.409992        0.41409         0.40073         0.39545         0.380877        0.458373        0.453538        0.446818        0.454234        0.460842        0.456263        0.464103        0.460127        0.459533        0.466684        0.471123        0.451449        0.473363        0.463127        0.464987        0.466492        0.473883        0.464085        0.471049        0.448925        0.461241        0.482177        0.47472         0.459451        0.466678        0.488888        0.492908        0.46316         0.478062        0.478498        0.465752        0.490526        0.484371        0.484816        0.488022        0.467966        0.489857        0.445077        0.502548        0.504997        0.473629        0.448978        0.431958        0.449584        0.4489          0.312139        0.471358        0.291892        0.291792        0.309427        0.287014        0.316733        0.292193        0.28299         0.304192        0.292214        0.292166        0.313105        0.317761        0.301342        0.515438        0.527144        0.500323        0.506498        0.527358        0.517154        0.533826        0.522385        0.531555        0.540273        0.537547        0.518532        0.533303        0.525228        0.529015        0.52196         0.532682        0.52955         0.52436         0.521443        0.531015        0.524905        0.283648        0.527055        0.292519        0.290088        0.292234        0.301247        0.293088        0.307651        0.304915        0.314036        0.293087        0.317042        0.309785        0.310124        0.293034        0.310041        0.293066        0.319081        0.293055        0.319669        0.297639        0.312757        0.293041        0.303642        0.29301         0.302149        0.293103        0.288634        0.302351        0.319297        0.293165        0.303293
0.405105        0.45037         0.335157        0.431625        0.251476        0.219936        0.445118        0.138544        0.457722        0.444293        0.44934         0.449712        0.460774        0.462681        0.315443        0.280386        0.280386        0.317132        0.280386        0.289541        0.298789        0.306311        0.303976        0.280424        0.301596        0.317587        0.317557        0.299217        0.298765        0.306404        0.304159        0.294438        0.298981        0.29213         0.313919        0.298772        0.299495        0.315529        0.298575        0.315554        0.281065        0.309142        0.283288        0.285612        0.300837        0.309967        0.283906        0.300762        0.279805        0.285892        0.314489        0.300766        0.333935        0.306731        0.136079        0.309           -0.0755108      -0.184739       0.404727        0.400241        0.420066        0.407262        0.402004        0.408199        0.411715        0.42039         0.411805        0.40105         0.41895         0.403302        0.39452         0.383449        0.449954        0.451113        0.455986        0.459433        0.465169        0.448796        0.450733        0.448092        0.461505        0.482079        0.447573        0.451132        0.465402        0.468336        0.472009        0.457969        0.466518        0.440199        0.473493        0.455675        0.459896        0.452439        0.463292        0.45018         0.489201        0.464485        0.476643        0.461082        0.479831        0.458738        0.465169        0.496001        0.468934        0.494691        0.484164        0.481154        0.452637        0.481105        0.493411        0.503427        0.453828        0.473455        0.438349        0.439954        0.307303        0.289549        0.451634        0.462394        0.313849        0.291436        0.280798        0.287564        0.306994        0.310899        0.315317        0.299649        0.298713        0.447926        0.310575        0.28729         0.452736        0.505439        0.439158        0.501768        0.529531        0.523555        0.517629        0.525735        0.544409        0.535885        0.526208        0.51882         0.52963         0.525086        0.529941        0.524708        0.519946        0.529518        0.536587        0.542946        0.286031        0.281311        0.527024        0.526808        0.290039        0.289896        0.280599        0.296478        0.286165        0.300315        0.300281        0.313979        0.290561        0.288285        0.300864        0.288312        0.29977         0.30991         0.309853        0.290589        0.290584        0.288298        0.305993        0.310548        0.295276        0.290683        0.288223        0.290496        0.290814        0.301258        0.288495        0.31278         0.301486        0.290871
0.452565        0.340129        0.432382        0.242716        0.442895        0.463823        0.445238        0.0867986       0.460709        0.445264        0.463935        0.453018        0.456306        0.313044        0.297038        0.289447        0.29415         0.305656        0.291735        0.294024        0.310424        0.312667        0.289548        0.289548        0.294109        0.306075        0.278072        0.294085        0.28723         0.303514        0.287593        0.297246        0.307143        0.280286        0.296323        0.297635        0.297179        0.304058        0.291564        0.297121        0.278712        0.3045          0.278692        0.297088        0.297492        0.304333        0.306597        0.297698        0.277189        0.281184        0.292836        0.306832        0.304426        0.299838        0.0537015       -0.0578152      0.299808        0.31582         -0.3649         -0.455818       0.413306        0.401182        0.414233        0.411752        0.414286        0.413806        0.420193        0.410558        0.49503         0.479974        0.391438        0.383249        0.446252        0.472573        0.458223        0.442862        0.462169        0.453332        0.458246        0.459899        0.449745        0.46002         0.486119        0.444747        0.466219        0.465428        0.468361        0.465082        0.436922        0.449238        0.447821        0.45327         0.451393        0.462907        0.479066        0.471609        0.469323        0.483822        0.485553        0.464024        0.470373        0.471418        0.467213        0.4622          0.492204        0.49541         0.498616        0.490378        0.457027        0.465662        0.496419        0.503466        0.460219        0.453181        0.492486        0.434901        0.450238        0.309339        0.304764        0.45963         0.278557        0.277448        0.304775        0.277247        0.277767        0.308291        0.286936        0.289232        0.401513        0.533229        0.298812        0.397168        0.531933        0.548503        0.397401        0.518208        0.527172        0.520502        0.519154        0.502197        0.534406        0.536271        0.538123        0.53284         0.543443        0.531811        0.524843        0.52502         0.528855        0.520116        0.522822        0.534469        0.541648        0.283408        0.287843        0.294567        0.293545        0.291994        0.311806        0.287132        0.298348        0.292905        0.307091        0.304768        0.281275        0.288155        0.311892        0.302997        0.298393        0.308055        0.294989        0.309665        0.285743        0.288116        0.278884        0.301183        0.307848        0.308042        0.283623        0.305604        0.28588         0.30108         0.312143        0.290411        0.307643        0.298467
0.32908         0.299828        0.247688        0.43957         0.450485        0.121023        0.0826158       0.0487862       0.452632        0.466715        0.454157        0.449198        0.280197        0.296927        0.312965        0.301746        0.275809        0.280197        0.291641        0.275619        0.280386        0.296614        0.312589        0.284893        0.303747        0.282588        0.294022        0.294016        0.276206        0.276171        0.289359        0.284748        0.286992        0.295436        0.297607        0.313511        0.290546        0.283573        0.288045        0.29512         0.287833        0.290082        0.294819        0.299764        0.290052        0.283424        0.300132        0.295529        0.292685        0.285829        0.285642        0.300111        0.192069        0.295234        0.299801        0.295238        0.421393        -0.319739       -0.431256       0.302041        0.402648        0.415998        0.417606        0.40777         0.420822        0.407223        0.420476        0.415418        0.491328        0.485428        0.39401         0.385821        0.444839        0.450575        0.455189        0.441449        0.450409        0.46217         0.453352        0.460262        0.482532        0.455126        0.479885        0.455077        0.484413        0.476465        0.484154        0.465714        0.434517        0.439967        0.478381        0.476964        0.471785        0.475004        0.460462        0.467707        0.495578        0.501888        0.480731        0.478449        0.491084        0.473463        0.48104         0.473453        0.480197        0.502996        0.474496        0.475235        0.461417        0.458608        0.487983        0.495711        0.406724        0.483827        0.460088        0.489326        0.306792        0.306794        0.28436         0.449999        0.297523        0.304516        0.304394        0.280392        0.306689        0.305683        0.296369        0.291202        0.298338        0.302993        0.296205        0.279786        0.536986        0.341833        0.360221        0.341988        0.515157        0.540143        0.525362        0.526496        0.520962        0.529692        0.519917        0.530839        0.540778        0.529502        0.525067        0.522946        0.528608        0.53818         0.523935        0.524352        0.521532        0.526115        0.280786        0.522371        0.275923        0.28648         0.293204        0.293807        0.292919        0.302491        0.295591        0.295556        0.294878        0.283673        0.27682         0.304908        0.296486        0.300494        0.292518        0.276491        0.285534        0.296443        0.285648        0.290122        0.314536        0.31241         0.314714        0.276346        0.285702        0.305114        0.314308        0.287944        0.314385        0.281468
0.450178        0.446752        0.443601        0.440026        0.452982        0.447032        0.442525        0.447491        0.454083        0.458385        0.312441        0.460124        0.301524        0.312128        0.299267        0.292417        0.301459        0.296438        0.305657        0.311719        0.301206        0.305737        0.310269        0.296857        0.301389        0.296782        0.312055        0.311955        0.301509        0.311888        0.316479        0.292486        0.301332        0.325045        0.322769        0.315916        0.301804        0.311351        0.301728        0.311405        0.301753        0.295217        0.313634        0.308856        0.301942        0.292963        0.304181        0.31126         0.302043        0.295186        0.292829        0.308938        0.302004        0.292839        0.292908        0.299764        0.302043        0.399763        0.292868        0.407175        0.406304        0.402183        0.402833        0.40641         0.40979         0.40847         0.414094        0.407413        0.412959        0.400192        0.387426        0.463059        0.45487         0.458318        0.457187        0.363561        0.459391        0.364615        0.36246         0.421379        0.460798        0.417972        0.416341        0.419287        0.470837        0.480902        0.471913        0.459863        0.473261        0.470931        0.466386        0.468708        0.47086         0.456685        0.481122        0.466799        0.464068        0.455919        0.473956        0.45995         0.469884        0.475019        0.488519        0.474618        0.480781        0.496981        0.463258        0.476133        0.486979        0.49013         0.469733        0.501008        0.465223        0.466539        0.458701        0.521806        0.459957        0.301961        0.301964        0.297389        0.301969        0.292817        0.301953        0.325277        0.301959        0.301799        0.325994        0.294613        0.302597        0.325382        0.305041        0.298252        0.302287        0.327212        0.30473         0.306982        0.52126         0.530396        0.507532        0.505246        0.530404        0.529479        0.509864        0.524416        0.532493        0.523149        0.52296         0.522771        0.533249        0.542716        0.541291        0.52295         0.532           0.529053        0.516396        0.529491        0.5277          0.317929        0.320189        0.523894        0.302469        0.295843        0.293245        0.313386        0.302606        0.317901        0.31329         0.305025        0.30271         0.33198         0.323241        0.313969        0.30294         0.293762        0.312233        0.30516         0.303032        0.302928        0.322417        0.315628        0.302973        0.304989        0.312205        0.293934        0.302817        0.320665
0.443156        0.458662        0.442711        0.440492        0.462169        0.309782        0.442991        0.449928        0.32818         0.292146        0.305895        0.327885        0.325625        0.292211        0.289854        0.289955        0.296203        0.292239        0.303746        0.327592        0.301494        0.292293        0.310999        0.305934        0.296733        0.318873        0.292265        0.308087        0.298687        0.32774         0.318598        0.303397        0.308961        0.29753         0.311276        0.327311        0.299466        0.294901        0.292511        0.294812        0.309054        0.297066        0.308995        0.327275        0.306637        0.295168        0.316492        0.294956        0.310112        0.312347        0.301978        0.319107        0.306434        0.311057        0.308902        0.297449        0.309098        0.311497        0.292841        0.318584        0.400803        0.407437        0.399571        0.407726        0.407585        0.425103        0.417445        0.42123         0.51667         0.373934        0.397193        0.466927        0.466334        0.377157        0.37687         0.465232        0.369193        0.36246         0.358016        0.35815         0.482373        0.440068        0.412003        0.481711        0.496738        0.49493         0.40867         0.465939        0.459031        0.462071        0.46481         0.475357        0.468189        0.469682        0.46935         0.466527        0.474115        0.47495         0.451528        0.481197        0.47387         0.481882        0.488313        0.478722        0.482303        0.484162        0.486021        0.455756        0.497048        0.440556        0.489616        0.495055        0.44391         0.460479        0.521438        0.453957        0.321816        0.315075        0.478261        0.290231        0.290336        0.292526        0.327149        0.299499        0.29605         0.360597        0.291153        0.289868        0.290834        0.302355        0.255796        0.300222        0.244507        0.357063        0.354958        0.357431        0.516119        0.511544        0.533785        0.491278        0.528644        0.512266        0.510961        0.525357        0.525184        0.529572        0.520798        0.529784        0.521587        0.531054        0.540521        0.522523        0.522836        0.514901        0.53414         0.543214        0.290957        0.537511        0.297755        0.293143        0.324504        0.315532        0.310714        0.319841        0.293452        0.32028         0.300066        0.310769        0.313787        0.315752        0.31819         0.291554        0.293785        0.318824        0.309829        0.329152        0.31757         0.298298        0.291446        0.296039        0.317528        0.319786        0.291554        0.328426        0.320564        0.291333
0.440749        0.439713        0.440889        0.454691        0.447895        0.459409        0.3073          0.45309         0.289668        0.311965        0.287412        0.294294        0.301137        0.298904        0.307264        0.31877         0.289758        0.298383        0.298446        0.294526        0.298572        0.31545         0.309201        0.320123        0.287499        0.298913        0.292017        0.313946        0.306938        0.316106        0.303173        0.320751        0.311201        0.320369        0.315805        0.313895        0.287846        0.301591        0.318148        0.325014        0.306906        0.31832         0.301535        0.320549        0.29282         0.301828        0.32039         0.297322        0.299382        0.307623        0.290246        0.316671        0.292555        0.292545        0.292854        0.288267        0.299701        0.306893        0.290526        0.413105        0.407656        0.404344        0.401639        0.401535        0.410486        0.421138        0.400145        0.412302        0.385024        0.396839        0.488139        0.375884        0.381311        0.475208        0.392182        0.466081        0.38077         0.378615        0.374171        0.367439        0.468903        0.481361        0.444513        0.476342        0.485431        0.471092        0.477198        0.410648        0.469274        0.467586        0.47963         0.473876        0.449456        0.455731        0.457429        0.456839        0.453959        0.48252         0.478777        0.449597        0.493556        0.477722        0.470974        0.469629        0.487236        0.492553        0.491003        0.457839        0.516881        0.443651        0.446801        0.476892        0.499297        0.50276         0.503934        0.455389        0.289932        0.29909         0.296804        0.317325        0.31745         0.307167        0.292237        0.308673        0.307175        0.295571        0.296725        0.317078        0.200151        0.200228        0.21175         0.399804        0.414194        0.205116        0.214349        0.403302        0.532588        0.503412        0.530304        0.493004        0.537176        0.529787        0.512058        0.513042        0.522766        0.525329        0.52514         0.54171         0.525314        0.5402          0.526604        0.525699        0.52714         0.525933        0.533867        0.539784        0.531439        0.521726        0.304416        0.306671        0.319722        0.315115        0.326531        0.315058        0.308663        0.310918        0.288616        0.308563        0.300008        0.310967        0.291611        0.307575        0.302893        0.309669        0.291403        0.305113        0.3083          0.293668        0.302838        0.291408        0.317406        0.315087        0.291501        0.297956        0.32415         0.291108
0.45037         0.448563        0.446629        0.443714        0.446073        0.449529        0.446965        0.444401        0.445286        0.298666        0.323215        0.323245        0.304144        0.317938        0.301041        0.296474        0.284414        0.306586        0.289757        0.291471        0.304356        0.289847        0.285224        0.306312        0.285132        0.285131        0.296545        0.291908        0.318202        0.289663        0.293838        0.287016        0.311152        0.285988        0.298268        0.297197        0.318071        0.304337        0.30397         0.313508        0.295131        0.285498        0.313448        0.294559        0.285787        0.288133        0.292686        0.313415        0.292369        0.287801        0.323444        0.294687        0.320048        0.313292        0.290099        0.299244        0.292807        0.28822         0.304687        0.409203        0.408052        0.401923        0.399898        0.417208        0.404764        0.410902        0.398731        0.406766        0.407929        0.409135        0.50345         0.417985        0.5078          0.398625        0.393761        0.483682        0.468641        0.392482        0.392615        0.483913        0.434814        0.487437        0.439144        0.482418        0.479908        0.436362        0.478696        0.414435        0.472092        0.472459        0.467579        0.460288        0.460423        0.448388        0.456952        0.470094        0.467215        0.480935        0.462018        0.482604        0.49335         0.469271        0.487901        0.482888        0.486763        0.487503        0.467218        0.482841        0.503954        0.495553        0.440741        0.44618         0.44933         0.498988        0.511606        0.51278         0.287352        0.323648        0.294223        0.485339        0.296865        0.314996        0.310545        0.290007        0.286257        0.292963        0.445181        0.441915        0.292485        0.456131        0.438984        0.442585        0.530204        0.154203        0.521417        0.147492        0.538262        0.52451         0.5068          0.529115        0.531406        0.524018        0.524599        0.511851        0.528141        0.525663        0.525474        0.523714        0.530723        0.540191        0.522193        0.522922        0.531298        0.520929        0.522004        0.532234        0.315053        0.317313        0.324151        0.305812        0.305784        0.312621        0.310304        0.297465        0.315048        0.306134        0.324136        0.297538        0.296303        0.295166        0.297397        0.295051        0.312095        0.305091        0.314108        0.298132        0.293531        0.308262        0.286763        0.300511        0.29314         0.321831        0.295506        0.298353        0.290981        0.297852
0.451397        0.328645        0.321801        0.321824        0.451117        0.442032        0.33549         0.321713        0.31149         0.320674        0.306971        0.315921        0.311372        0.306856        0.304629        0.324564        0.311127        0.308703        0.301856        0.315763        0.31105         0.320253        0.301608        0.323566        0.310859        0.30847         0.306081        0.339885        0.311259        0.330454        0.304419        0.322039        0.311207        0.315693        0.315811        0.321989        0.311155        0.315732        0.311157        0.324535        0.311157        0.315704        0.309046        0.321383        0.311275        0.302572        0.311146        0.313887        0.311534        0.307329        0.309138        0.304934        0.311747        0.328004        0.306508        0.314366        0.311306        0.331053        0.396444        0.30477         0.403599        0.330571        0.403888        0.396021        0.4076          0.397717        0.39699         0.402857        0.41051         0.422157        0.402773        0.403135        0.411934        0.411651        0.422809        0.411078        0.413081        0.403508        0.392957        0.434026        0.440011        0.43879         0.447509        0.418767        0.446535        0.493527        0.475697        0.418222        0.47208         0.462957        0.466181        0.453551        0.471949        0.470973        0.470359        0.470665        0.465976        0.474858        0.461885        0.456001        0.467069        0.470817        0.458787        0.465068        0.472449        0.500636        0.479607        0.466582        0.483324        0.49407         0.463927        0.469564        0.489465        0.520652        0.503257        0.460707        0.466459        0.511326        0.475673        0.511241        0.31229         0.314705        0.318401        0.312668        0.311786        0.314201        0.316616        0.328987        0.492874        0.50658         0.324756        0.322292        0.496782        0.501544        0.322367        0.481313        0.514356        0.338115        0.529558        0.322343        0.526016        0.530571        0.521118        0.512947        0.531235        0.523265        0.526443        0.521572        0.531912        0.520893        0.522944        0.524838        0.532037        0.526221        0.534915        0.529454        0.529378        0.307953        0.307925        0.53344         0.312445        0.307839        0.312617        0.303204        0.312559        0.335081        0.307915        0.319593        0.312693        0.312842        0.309508        0.313141        0.312095        0.328797        0.316397        0.318548        0.312647        0.305241        0.310513        0.319128        0.312339        0.339213        0.330036        0.339169        0.312461        0.330136
