204.723         209.811         211.451         209.399         211.022         203.943         204.906         204.767         211.925         209.989         206.27          206.14          211.156         204.95          205.751         206.549         205.494         205.366         206.164         214.161         205.769         205.571         207.043         208.262         206.743         206.592         213.796         213.956         208.452         207.692         208.372         208.59          213.395         209.028         207.696         211.775         212.26          -156.374        256.934         314.557         316.438         -159.631        269.663         263.915         10.0596         10.0481         267.501         9.75358         9.64621         263.328         263.893         75.2707         326.705         11.3618         75.7013         75.6019         75.5025         75.4031         75.3037         75.321          75.2872         75.3045         75.2962         41.0987         6.90125         -27.2962        214.228         214.269         214.309         213.643         213.434         248.171         282.872         317.778         74.7263         73.8018         75.9784         74.8847         75.5723         76.7591         76.589          75.5639         75.8813         76.1553         76.0619         75.1887         76.6737         76.6264         76.5791         75.4609         75.8159         76.473          76.3805         76.288          329.747         45.6593         264.498         -18.0724        201.653         203.679         203.28          203.099         202.69          233.641         264.591         48.2188         79.1692         79.8796         79.6542         80.2042         79.9919         79.8738         80.6976         78.8442         81.2995         79.5849         79.4846         80.1497         81.6279         80.7528         80.6572         81.3473         81.5223         80.3862         80.3892         81.4436         81.4173         83.5246         85.6319         69.6486         73.0482         89.8113         -36.3663        125.862         0               -20.6082        -41.3845        102.873         83.9162         82.138          82.6904         81.8844         83.4231         83.3241         82.6069         83.1262         84.054          84.5391         84.4361         83.5359         85.0364         83.4816         84.8323         83.2672         84.0278         84.5309         85.2159         85.1186         85.0213         85.8223         85.0503         85.5959         85.6858         84.7258         85.2702         85.164          85.9069         85.7975         85.0348         85.5787         87.1489         86.4559         86.9448         86.8428         86.7407         -64.7181        129.286         151.684         0               -17.4514        141.59          119.528         97.4665         88.9329         98.9603         94.1322
204.147         203.988         206.236         206.081         205.926         205.772         205.617         205.478         205.339         205.199         206.112         205.982         205.852         211.745         206.577         214.587         212.832         212.654         215.147         208.468         208.27          208.073         214.533         214.467         214.676         214.61          214.544         212.829         208.48          208.44          208.92          207.489         213.943         214.261         208.145         212.225         -156.41         364.304         115.983         290.578         368.55          60.5782         301.868         42.3639         42.2646         294.598         43.5977         293.729         43.3829         41.7438         75.397          43.0768         42.9853         389.643         75.7813         75.6819         75.5825         75.4831         75.3837         75.4213         75.4131         75.4048         75.3965         317.813         7.35746         248.972         214.551         214.592         214.633         213.651         213.377         248.161         282.88          40.0997         76.4936         74.6156         74.4126         74.2095         74.8078         76.8663         76.6961         74.2911         76.3558         76.2625         76.1691         76.0757         76.8066         76.7593         76.712          75.9961         76.9877         76.9            76.5059         76.4134         329.989         296.163         13.4756         235.371         203.832         203.921         204.011         204.1           202.662         -14.8848        17.3802         295.513         78.3871         78.1617         78.8564         78.6442         80.0905         79.9724         80.7946         78.9428         81.4            80.481          81.1923         80.2804         81.7263         80.8513         80.7557         81.4458         81.6501         80.5139         81.2998         81.5713         81.5451         82.6604         68.9914         69.8064         73.206          91.3892         -36.0507        126.02          165.79          144.173         -41.3845        -61.8246        82.3488         82.222          82.7745         81.9685         84.3342         83.4046         83.3057         83.2067         83.9384         84.6193         84.5163         82.8415         84.3103         85.0094         83.4546         84.8053         84.8631         84.6059         84.5086         85.1957         84.482          84.9852         85.7904         85.0226         84.9137         86.3065         85.3515         85.2453         86.854          85.8784         86.0172         85.9048         87.2239         86.5309         86.4259         86.3208         86.8157         -64.7181        -43.2954        150.934         0               -17.4514        136.979         -66.1846        92.8563         51.1468         99.0534         88.7766
-133.77         204.601         205.709         205.554         206.251         206.483         206.328         206.189         206.049         205.91          206.885         207.793         207.663         206.496         207.404         208.302         208.173         208.045         207.917         207.719         207.521         196.025         208.707         208.557         208.407         208.257         209.308         195.452         209.549         209.509         209.469         207.938         209.906         210.124         208.594         364.762         205.136         -52.1485        0               -18.4684        -36.9368        -55.4052        73.8736         73.7742         74.4696         74.3702         74.2709         75.0225         74.0562         73.3845         74.7004         74.8353         74.5175         74.6339         75.0661         75.7619         75.6625         75.0035         75.4637         75.5216         75.5134         75.5051         75.4968         74.9128         74.8434         74.774          212.287         212.012         211.738         213.659         213.385         212.571         212.655         39.3695         74.1725         75.4754         420.217         73.6142         74.917          76.1226         74.5726         74.4003         75.6059         75.5383         74.3662         74.2931         75.8765         75.3264         75.2628         75.1992         76.0763         75.9998         75.8876         75.7754         76.4463         75.5127         75.3622         75.2118         202.137         203.405         203.223         203.042         202.861         202.157         16.3176         324.764         78.4988         355.624         17.1862         416.995         79.4005         78.4221         79.4217         79.2873         79.8793         79.0592         78.9654         78.8716         80.2806         80.1837         80.8542         79.2115         80.663          80.6417         79.9757         80.0169         80.6508         82.7881         84.9255         69.9642         72.1015         0               108.152         126.178         0               144.257         123.649         103.041         82.4328         82.306          81.6176         82.0525         82.94           82.2269         82.768          82.682          83.2839         84.098          83.3559         83.8654         83.7491         83.8341         84.3922         84.2851         84.1779         84.8449         83.3323         83.892          84.559          83.827          84.3411         84.2321         84.9949         84.8884         85.6344         84.9359         85.4213         85.4752         85.1967         85.9828         85.8705         86.6059         86.5009         86.3958         86.2908         107.863         129.436         151.009         0               154.431         97.4246         122.932         88.2461         88.1214         87.9967         88.8698
239.029         238.871         207.795         207.64          207.485         207.331         206.784         201.335         206.505         207.757         207.618         204.538         207.359         208.079         203.585         204.333         207.693         205.831         209.339         210.889         197.645         197.866         197.333         197.565         197.547         197.529         211.029         210.989         211.223         211.183         199.304         197.666         209.531         199.058         -255.602        202.743         314.265         210.277         147.834         129.366         16.009          414.935         73.9609         74.1108         73.7622         73.6629         74.3429         74.2355         74.376          74.8836         75.4984         74.9019         75.3156         74.502          75.9308         75.8314         75.732          75.6326         75.5332         74.9631         75.5167         75.5694         -26.7823        74.9771         74.9077         74.8383         350.018         315.664         -95.7694        213.771         213.497         -64.8434        283.103         212.852         316.42          39.3797         385.61          420.205         73.6964         73.4865         74.7469         74.5747         76.2783         76.2107         74.5029         74.4298         76.0077         75.9578         74.8305         75.8579         76.1939         76.1014         75.9855         76.6367         76.5442         75.6106         13.6989         264.93          233.507         296.415         233.145         203.152         202.971         234.062         265.153         202.618         80.4077         80.1822         17.2917         47.9769         79.7813         78.5276         79.2666         78.2588         79.2437         79.8804         79.0562         78.9624         81.1416         79.5023         80.9504         79.3088         79.9896         80.776          79.6283         80.7821         80.7851         82.9225         85.8522         87.1971         90.1269         -54.0761        0               -54.0761        164.937         -20.6082        -41.0732        103.113         82.5044         82.3776         81.6891         82.1241         83.695          82.9311         82.8451         82.1119         83.351          84.174          84.0577         83.9414         83.8251         83.7179         83.0132         82.9112         85.0187         84.1638         84.0685         84.7328         84.6375         84.5286         85.2966         85.1877         85.0787         85.8161         85.1262         85.6029         85.4964         85.384          86.1822         85.1594         86.7869         85.8525         86.5768         85.6424         102.952         90.0799         129.512         115.913         107.136         -39.2378        132.428         110.367         88.3054         88.1806         88.4214         88.9466
-65.2297        273.141         209.881         208.947         207.549         205.378         203.593         203.731         206.961         204.008         209.014         205.083         201.848         204.448         204.13          197.135         197.884         198.633         199.297         199.265         199.234         199.288         199.172         199.154         199.136         199.118         198.981         198.894         198.807         199.509         212.817         199.34          199.259         199.177         266.98          263.491         315.639         278.28          147.922         310.673         110.985         44.723          74.8122         73.2351         74.6136         73.0058         75.2816         75.1743         74.4519         74.3484         75.565          74.9686         74.8678         75.2907         75.432          75.0999         75.8016         75.1427         75.6028         75.1514         75.0192         75.6337         75.1109         75.0414         74.972          74.9026         280.671         280.397         214.158         247.066         213.609         212.796         212.88          318.018         4.95899         -29.9143        75.638          385.598         73.8708         73.6609         74.9213         73.2411         76.4096         76.3419         75.744          74.5665         75.089          75.5616         76.0391         75.9891         76.3115         76.1955         76.0833         75.9711         14.5183         75.7085         14.2174         296.3           203.806         264.696         203.444         203.262         202.201         202.377         202.552         202.728         16.8887         80.2877         17.3972         79.8369         79.6115         79.7377         79.6033         79.4689         79.3345         79.2408         79.147          79.0532         79.6964         81.1422         81.0466         80.951          80.9073         80.8584         79.7626         80.2093         80.9195         83.0568         85.1941         87.3315         108.152         -54.0761        0               -36.0507        0               143.613         123.076         102.54          82.9621         81.882          82.7197         82.1957         83.7621         83.0082         82.9222         82.189          82.8814         84.25           84.1337         84.0174         84.769          84.6618         83.0892         84.4475         85.0972         84.245          84.1497         84.0544         84.7161         84.6071         85.3804         84.3891         85.9978         85.8912         84.9492         85.678          84.9708         84.8704         85.3468         86.1569         86.8628         86.7578         86.6527         85.7294         85.7754         -99.0706        129.588         98.737          -34.3525        98.2314         -78.4756        92.7169         88.3646         87.7837         89.1482         89.0234
307.57          307.411         211.967         211.812         211.657         211.503         204.048         204.187         202.94          207.278         203.217         209.43          202.582         204.993         204.676         212.569         212.441         212.313         212.184         200.773         200.742         213.673         200.761         213.325         213.175         213.024         201.444         200.615         214.572         214.351         201.097         201.97          200.933         201.806         201.724         -297.469        -245.32         369.162         235.039         -159.492        111.072         44.8103         74.3695         73.3224         74.1402         73.8375         74.4869         75.2502         75.1428         75.0354         75.6316         75.0352         74.9345         75.3574         75.5015         75.9706         75.0671         75.2122         75.6724         75.1023         75.0887         75.6475         75.1752         41.533          75.0363         74.9669         41.3248         315.888         214.27          247.178         212.824         248.524         247.038         318.131         -64.335         75.9985         4.85509         75.6262         74.0452         73.8353         75.0957         74.9234         76.5408         76.4732         75.8807         75.8131         75.7428         75.6792         75.6156         76.479          76.4056         76.2934         76.1812         76.069          75.9568         75.8064         75.6559         75.5054         328.076         296.635         265.194         -49.0369        202.311         -107.188        265.373         202.838         232.524         80.3932         293.894         -14.5926        79.717          79.5973         78.6042         79.3579         80.1689         80.0751         79.2378         79.144          81.334          81.2384         81.1428         81.0472         81.0416         81.0446         79.8969         81.0507         81.0538         83.1911         85.3284         140.064         -72.1015        144.203         162.228         -18.0254        165.08          143.685         -41.0732        -61.8246        83.6785         82.5208         82.7968         82.2673         82.5543         83.7431         82.3622         82.9134         83.4852         83.6913         84.2097         84.0934         84.8502         83.8699         84.6359         83.8738         84.5583         84.3262         84.2309         84.1356         84.7946         84.6856         84.5766         83.8551         84.5763         85.9663         85.8597         85.7531         85.8367         85.7364         84.8452         86.244          86.9387         86.8337         86.7286         85.8165         85.9112         72.9197         77.2402         -73.1014        85.8813         81.0552         132.547         92.7761         88.4238         87.843          89.225          89.1003
262.049         229.707         197.365         205.355         208.074         192.01          204.504         204.643         204.781         203.812         203.951         206.252         203.315         205.539         205.221         199.98          200.729         201.478         202.226         202.195         202.164         202.133         202.351         202.332         202.314         202.296         202.423         202.336         202.249         202.163         202.771         202.689         206.26          202.526         203.098         206.865         180.498         189.926         188.031         -12.3558        325.787         273.911         73.5243         74.3268         74.2122         74.0975         73.9829         74.0984         73.3345         73.6725         74.3968         74.2961         74.1953         74.9004         74.7996         74.1405         75.3783         75.2818         75.1854         75.2801         11.4083         75.253          75.2395         75.7254         75.1007         75.0313         75.5172         41.1625         214.323         212.522         212.936         212.347         212.431         212.516         212.6           -29.5656        5.02946         316.385         74.2195         74.0096         70.466          72.3735         75.0591         70.4265         74.913          75.4246         75.3515         75.7968         75.7332         75.6696         75.6059         76.3913         69.7736         76.1669         76.0547         75.9043         75.7538         75.3931         76.6566         43.8371         12.4318         -17.6669        202.421         202.597         202.772         201.544         201.719         232.404         263.089         295.768         78.9785         79.9193         78.7097         78.5753         79.5161         77.1639         80.0787         76.8439         79.8912         80.5685         80.4717         80.3749         80.2782         79.9901         80.0312         80.0724         80.1135         -80.1135        -80.1135        -80.1135        0               0               0               0               0               142.858         123.22          -61.6098        82.1464         82.1904         81.9039         81.7827         82.6314         82.5354         81.658          82.3433         83.0156         82.2141         82.1045         83.5525         83.4451         82.6746         83.2412         82.4825         83.853          83.7551         84.4409         83.5591         84.2449         84.1411         84.8676         84.0386         84.66           85.4666         84.4296         83.5548         85.121          85.3015         84.9203         84.1818         85.5224         86.3357         86.2195         85.4853         85.9871         90.3076         93.9635         64.3845         68.705          102.487         96.8978         92.8353         88.0093         87.9022         88.6519         88.5448
311.301         228.012         205.445         209.806         208.021         206.236         203.1           203.238         204.728         204.867         203.654         206.122         203.018         202.701         205.169         205.917         206.666         201.392         202.141         202.11          202.423         202.392         202.361         202.343         203.277         202.306         202.335         202.248         202.161         202.803         202.716         202.634         202.552         202.471         206.334         208.416         178.028         205.572         205.318         -43.8013        204.619         293.992         74.4999         74.3852         356.422         387.811         74.8819         73.9378         73.8344         73.9884         75.2737         73.797          75.0722         74.9715         74.9987         74.909          74.8193         74.7296         75.2633         390.368         43.7811         75.2227         304.9           43.6847         43.6152         43.5458         218.201         8.88547         214.6           247.568         213.213         213.29          213.381         212.882         212.678         247.184         281.779         317.281         70.8553         74.2712         72.5529         71.1017         71.0532         76.1894         71.0371         75.3935         71.7766         71.6906         71.6045         76.2658         71.4324         76.09           75.8776         75.3463         74.815          74.6642         75.7207         74.3626         75.4191         44.0139         12.6086         -18.7966        200.932         202.809         202.985         202.519         201.624         232.309         262.994         293.679         79.2934         80.1933         79.0246         79.9245         79.0763         78.9163         80.2865         80.1927         80.9775         80.8807         80.784          80.6872         80.5904         100.018         100.06          80.7139         -80.1135        120.17          -40.0568        -60.0852        0               0               0               0               164.375         -20.5366        123.301         -61.6098        82.2281         83.0906         81.9856         81.2526         83.4862         83.3902         83.2941         83.1981         83.1021         83.1837         83.0741         82.0814         83.5295         83.5094         83.3255         83.2235         83.2213         83.1174         83.7474         82.9097         83.6545         83.5563         84.1217         84.0179         85.6585         84.97           84.8414         85.3128         85.1976         85.8918         85.7914         85.1525         85.5907         86.4119         84.8273         85.2421         85.4533         89.7465         60.1129         64.4334         106.562         102.574         97.7476         92.9215         87.4062         87.3227         87.8366         88.6545
258.66          -187.106        205.392         207.392         207.969         206.184         204.399         204.537         204.676         203.218         206.387         203.039         202.721         202.404         205.538         199.809         206.613         207.684         202.055         202.465         201.993         202.937         202.371         202.171         203.189         203.072         202.954         202.901         203.208         202.794         203.101         189.217         190.742         192.266         206.201         203.61          203.356         203.102         202.848         202.499         202.15          201.8           10.6333         74.4436         324.976         42.2432         74.9532         74.8497         74.7463         73.7893         75.3448         74.4386         73.7675         74.4734         75.727          75.6305         75.5341         75.4377         75.3412         43.141          327.306         12.2822         272.623         271.762         11.102          11.0326         10.9632         -23.3915        282.199         247.844         211.275         213.574         213.658         212.493         -66.8209        -31.9531        282.402         317.27          72.6502         74.5327         74.3228         76.3762         71.6718         71.7295         71.7214         71.7134         72.3728         72.2868         72.2007         76.862          72.0287         76.586          76.0547         75.5234         74.9921         74.8413         74.6905         74.5397         75.5959         44.1906         12.7854         234.288         202.847         203.022         203.198         203.373         -43.1324        232.213         14.8987         45.9941         77.0894         78.3975         78.2223         78.0471         77.8719         77.7119         77.552          77.392          81.2897         81.193          81.0962         78.6673         120.006         98.1619         117.919         137.676         -80.1135        140.199         160.227         180.255         0               0               0               0               0               143.92          122.567         -61.6098        82.3097         81.5492         81.4417         81.946          82.8223         82.7262         82.6302         81.7439         84.0433         83.9359         83.1584         82.1679         83.6957         83.5118         83.4098         82.6512         84.0335         84.0504         83.1038         84.5116         83.7388         85.1513         85.0475         84.2185         85.7352         83.9918         84.6095         84.4942         85.5468         85.1739         85.0736         85.7594         85.6591         86.4882         86.372          86.2558         85.5295         89.8228         94.116          99.1012         68.4112         102.66          97.0701         93.0077         88.1816         87.4088         87.9674         88.7643
256.965         224.622         205.339         209.701         207.916         206.131         204.346         205.752         204.557         204.761         203.06          205.706         205.288         202.107         205.485         206.201         201.225         201.22          201.969         202.475         202.444         202.413         202.299         202.364         202.065         202.327         202.158         202.071         201.984         201.897         189.244         207.998         207.916         193.818         207.752         169.322         200.887         200.633         200.379         209.249         199.68          199.331         -20.8122        -20.4769        74.3874         324.92          74.1581         74.921          73.5097         74.7141         75.416          73.9396         74.4092         74.5446         75.8049         75.7084         75.612          75.5156         75.4191         327.397         295.82          264.244         232.667         231.806         230.945         230.084         -21.3138        216.954         233.3           248.121         212.23          213.851         211.144         212.859         212.656         -31.6915        3.17623         316.351         75.0042         74.7943         77.1397         74.3745         72.2905         72.2831         72.275          72.267          72.969          72.883          72.797          77.4582         77.2944         76.7631         76.2318         75.7005         75.1692         75.0184         74.8676         76.1346         75.7727         295.573         14.3046         -18.4431        201.358         202.594         203.41          200.96          202.196         232.118         15.2135         49.2379         79.923          78.6716         80.607          79.5198         79.4919         77.986          77.826          80.6084         81.602          81.5052         81.4085         81.3117         78.7169         81.2561         -59.5429        137.989         -80.1135        -60.0852        180.255         200.284         0               0               0               0               163.558         144.001         122.648         102.928         82.3913         82.2701         82.1488         82.0276         82.1543         82.8981         81.9443         81.8394         82.5831         84.0203         82.364          83.1332         83.786          82.9275         83.4941         82.7355         84.8898         84.0258         83.9278         83.0902         84.603          84.3942         84.4066         83.5286         84.9299         85.6966         84.9948         84.8662         84.7377         85.2506         85.9281         85.8278         86.6806         86.5645         86.4483         86.3321         85.6058         89.899          94.8569         99.1775         68.4601         102.746         97.1563         93.0938         87.5785         87.495          88.9811         88.874
390.98          203.777         204.144         204.002         205.001         204.858         204.716         204.61          204.504         204.398         205.138         205.065         204.991         204.918         205.432         206.148         206.863         207.579         202.57          202.114         201.387         202.766         202.309         202.192         203.012         202.894         202.777         203.151         202.457         202.373         202.991         202.987         202.891         202.795         196.893         198.671         198.417         198.163         197.909         200.111         200.005         199.656         199.306         230.696         321.577         201.383         73.7493         73.6587         11.3503         73.4775         74.1117         74.8174         74.7166         74.6158         74.5149         74.7514         74.6414         74.9634         74.8737         74.4358         -52.0296        232.758         201.181         200.32          -116.098        -148.147        204.625         202.824         201.023         199.223         211.829         211.625         -129.439        -163.646        212.644         211.955         212.092         212.229         73.1733         384.067         73.3376         72.7626         72.8447         80.9551         72.893          72.8206         72.8769         73.4792         73.3932         73.3071         73.2211         76.9402         72.1585         75.8776         75.3463         75.1955         75.0447         74.894          75.9495         44.5442         79.4034         -44.8667        201.57          201.438         -106.745        202.233         202.101         322.812         202.062         202.341         77.7191         77.5439         78.7704         78.5952         78.42           78.26           78.1            77.94           79.0599         79.0061         79.0138         79.0829         79.0291         98.7864         80.6147         81.2053         0               0               0               0               0               0               153.974         0               0               84.9187         83.6669         82.4151         81.8199         81.9893         81.605          81.4975         82.2497         82.1447         82.0398         81.9348         82.6696         82.0076         83.327          83.2175         83.1079         83.7802         83.1378         83.5881         83.4921         82.8224         83.2843         83.1805         83.9075         83.8093         83.1124         83.613          84.3002         84.4263         83.5852         84.9429         84.8143         85.5749         83.8848         83.7704         85.2489         84.4754         85.3477         84.9241         85.6821         89.2226         94.2685         64.2159         68.5091         101             97.2424         92.4535         87.6647         87.5811         86.875          88.0823
205.556         -202.366        205.407         204.24          205.122         204.979         205.714         204.731         204.625         203.651         205.292         205.218         205.145         205.071         413.299         199.681         200.397         201.113         201.979         200.58          202.11          202.175         202.24          202.73          202.006         201.889         202.797         202.743         202.69          202.636         202.98          202.976         202.88          202.784         198.46          198.206         197.952         194.5           197.444         201.178         200.018         201.2           199.202         200.453         290.495         293.369         42.6678         -19.6407        74.3708         42.396          73.566          74.8942         74.7934         74.6926         74.9179         74.8079         74.4124         74.588          74.9302         -20.3962        74.5067         264.406         232.829         207.668         231.107         205.946         -154.301        203.284         201.483         296.942         348.75          -61.125         213.156         212.952         212.748         -66.0572        282.483         315.427         71.6827         349.44          38.7104         38.7925         71.9496         78.5444         71.9335         71.9872         72.6152         72.5292         79.4401         72.3571         79.2827         79.78           79.0999         70.6771         79.599          74.6854         78.7109         74.3838         79.1866         79.0638         78.941          -18.7287        202.705         202.573         202.44          202.308         201.578         201.857         -15.213         202.416         46.9778         78.9379         354.025         78.5875         79.7507         78.2523         78.0924         77.9324         78.7029         79.1185         79.5707         79.1339         78.9786         98.7359         118.493         81.1548         134.569         -19.2172        -19.2172        134.508         134.551         134.652         -19.1211        134.853         86.2526         143.267         83.749          102.357         82.1789         81.7945         81.0171         81.5796         81.7222         81.6123         82.95           82.0101         82.1766         82.6305         82.7348         82.6362         83.4219         83.3153         82.9973         82.9012         82.9956         84.2917         82.7911         82.6888         83.3997         83.2923         83.1849         84.4617         83.857          84.5139         85.159          85.0305         85.1335         85.6568         84.9047         84.576          85.6566         86.0784         85.9701         85.8618         85.1818         90.0468         59.8131         65.164          105.679         64.6608         97.3063         92.5175         87.7286         87.645          86.939          88.0906
205.794         -251.623        202.714         204.772         202.193         205.1           204.957         205.762         204.364         204.64          205.445         205.372         308.295         308.222         198.224         198.94          199.655         200.371         201.91          201.975         201.249         209.234         202.778         202.749         201.937         201.82          202.663         202.762         202.709         203.021         202.968         202.964         206.017         206.779         197.994         193.376         197.486         197.232         196.979         196.629         199.913         199.446         199.097         200.348         261.875         293.265         260.239         11.4956         74.4488         74.3582         75.0718         74.971          74.2579         74.7694         75.3455         75.2558         74.7545         75.0765         74.9868         74.5489         74.5632         -19.7439        330.06          263.616         207.267         -84.8516        287.245         285.444         283.643         -24.6569        7.18883         279.838         -61.2256        -95.4328        280.388         212.161         282.587         212.436         280.937         314.813         348.689         4.16525         77.8451         70.9821         71.1618         77.4427         79.2278         71.5791         78.4806         78.404          76.4513         78.6812         78.5898         78.4984         79.1366         79.0335         74.0245         78.8272         75.0246         78.6013         78.4785         78.3557         16.6505         263.078         263.408         262.813         202.25          201.932         202.211         -14.8589        79.1055         16.0612         78.7551         78.5799         78.4047         78.2447         78.0847         77.9247         79.7079         79.1695         79.1772         79.1849         78.928          -97.7063        114.122         138.2           -38.4345        -38.4345        -38.4345        -38.4345        114.325         -38.2422        114.526         -38.4432        114.727         85.0829         83.8311         82.5793         81.984          81.8766         82.6153         81.6617         81.7976         83.1254         82.1905         82.0855         83.0133         82.7009         82.5913         82.7177         82.6191         83.922          83.0787         82.9827         83.0665         83.779          83.4262         83.5745         84.8196         83.9544         83.2575         83.7581         85.5037         83.8161         84.4972         83.6076         84.9895         84.8809         84.7722         84.8722         85.4127         86.1498         86.0415         85.9333         85.2533         90.1182         93.4777         63.9967         105.743         102.159         96.512          92.5814         87.2812         87.709          87.0029         88.0988
243.207         -300.881        204.86          204.893         205.363         205.221         205.078         204.972         204.866         203.893         204.371         205.525         205.452         205.378         197.482         360.432         198.914         361.653         199.704         200.41          201.179         200.54          202.102         201.985         203.069         202.952         203.17          202.781         202.728         203.01          203.048         204.481         206.005         202.761         205.052         205.964         198.411         196.767         200.236         196.164         195.815         199.819         199.831         200.243         200.656         201.068         -19.4954        74.6173         11.5841         -19.7671        74.5386         75.0479         74.3347         74.0431         75.4021         74.6557         75.2227         75.133          422.432         390.855         359.278         42.928          209.449         298.471         207.727         234.374         206.005         319.551         202.403         297.862         213.77          213.566         -27.119         213.158         212.128         -135.312        -100.444        246.172         -30.7085        -24.6163        9.25971         70.2624         70.0307         70.3365         76.7435         70.0065         70.7151         70.6291         70.543          70.457          70.371          75.4099         74.8786         77.9883         73.8159         73.6652         73.5144         73.3636         419.651         47.8389         78.0161         77.8933         325.239         202.722         202.59          202.457         202.325         -107.791        202.286         202.565         231.426         -14.6801        -14.8553        323.101         79.8527         79.1089         78.0771         78.9062         78.8049         78.711          78.6172         79.3758         93.7238         79.8725         80.4631         95.4956         96.0862         96.0818         96.1168         96.1124         96.1081         96.2086         96.3091         96.4096         163.886         94.3537         -98.2732        91.8501         82.3296         81.2954         82.6907         81.7438         83.3008         82.3708         82.2658         81.5432         82.3175         83.681          82.8977         82.5522         83.5637         83.4572         83.1602         83.8009         84.5406         83.601          82.9329         83.3932         83.5448         83.4374         83.9288         83.8306         84.7933         85.4627         83.7751         84.4806         85.2972         85.1828         85.0684         84.0332         84.8396         86.2213         86.113          84.4836         85.3248         90.1897         60.8326         63.8871         105.807         102.223         97.4342         92.6453         87.3451         87.7729         87.0668         88.1071
196.873         196.748         203.191         205.014         204.753         203.761         204.232         204.16          204.087         195.471         204.524         255.656         195.921         195.781         0               -51.3843        399.46          207.041         205.537         200.372         200.37          208.377         202.586         201.934         202.759         201.689         202.701         202.617         202.699         203.121         203.037         203.707         202.845         200.905         203.42          197.033         205.245         198.858         199.77          199.692         199.703         199.715         199.726         200.138         200.551         196.471         198.076         -21.961         260.902         40.6757         73.7999         71.8878         74.4115         71.6753         74.2076         74.0977         74.8675         74.7576         74.6476         74.5471         74.5615         74.5758         74.5902         74.462          74.4808         -53.9212        202.785         -54.0504        11.7105         298.322         75.4021         41.1948         280.645         -27.2196        212.231         212.581         212.505         212.294         211.682         -25.4497        279.434         314.199         76.1783         77.1172         75.9101         76.849          76.7148         77.2511         76.0535         76.8762         77.0213         77.6609         76.5751         77.4782         77.3868         77.2837         78.0055         76.9161         77.7992         77.6764         79.9647         77.4308         78.2905         47.4126         17.6842         -14.3431        201.802         202.081         202.361         202.64          200.684         231.243         265.92          48.6678         78.4506         79.1599         78.2479         78.1466         78.8559         79.5129         78.6682         79.3252         79.2313         75.0972         80.4125         76.2784         76.869          76.8996         76.8602         76.8559         76.8865         76.987          77.0875         77.188          76.4844         75.2326         73.9808         82.7434         81.4916         82.2908         82.1766         81.1491         81.9483         82.7176         81.7285         81.6186         82.3879         82.2894         82.2543         82.1523         82.7821         82.6755         81.8225         82.4623         83.2084         83.4146         82.3009         82.1838         83.6174         82.9564         83.7024         84.1544         84.047          83.3772         84.6724         84.0752         84.4639         84.4884         84.3991         84.1208         84.9215         85.7523         84.6841         84.8744         85.3962         89.5084         71.9548         74.8791         68.9474         101.255         93.5264         92.0244         87.409          87.2699         88.244          88.1048
196.862         206.135         205.511         205.251         204.991         203.998         202.572         204.397         204.324         196.511         205.565         197.102         -152.493        358.958         -50.2307        359.651         208.195         348.037         205.498         199.594         201.176         201.914         202.122         202             202.731         203.015         202.674         203.235         202.506         202.561         202.991         202.895         202.792         202.704         211.245         203.52          196.276         197.188         198.1           198.111         198.123         198.134         209.567         198.732         199.145         199.557         198.242         229.56          260.878         42.9567         74.8368         73.9237         72.0073         72.7639         75.3143         75.2043         74.2091         74.9843         74.8743         74.5655         74.5798         74.6556         74.6085         74.4804         10.5111         266.92          -21.8165        75.201          11.8027         43.6484         346.981         40.6801         7.07978         -27.1274        212.453         212.591         212.728         212.865         -59.2439        245.5           8.50808         41.5897         76.2601         76.126          75.9918         76.906          77.3587         77.282          77.2054         77.1288         77.7755         77.6841         77.5927         77.5013         77.41           77.3068         77.2037         77.1006         77.8304         80.1186         77.5848         77.462          79.2469         294.327         17.5476         232.571         202.561         202.51          199.687         202.532         -44.0544        230.804         17.1987         47.7572         79.0701         78.9688         78.8675         78.9229         79.4128         80.0965         78.4771         79.1312         79.0374         74.2077         74.7983         80.8091         75.9795         75.9751         75.9708         75.9664         75.9064         76.0069         76.1074         76.208          84.6163         85.3262         72.8191         71.5673         80.9375         82.374          81.5859         81.2283         82.1166         81.9216         81.9201         82.5927         83.2677         83.1691         83.0706         82.1872         83.7188         83.6122         81.914          82.5538         83.2925         83.1903         83.088          83.2496         83.6866         83.5792         83.4718         83.6653         84.1167         84.8392         84.735          83.2239         85.4667         85.3523         84.2977         85.1235         85.9519         84.8904         84.7717         84.9553         64.9992         67.9235         70.8478         63.7282         76.6964         97.0348         93.6163         90.1979         87.499          87.3598         93.2612         101.144
193.927         207.538         205.749         205.488         205.228         204.967         204.707         204.634         204.561         204.488         206.605         257.736         308.867         197.862         -100.461        300.192         208.156         256.843         198.817         206.197         201.243         201.98          202.762         202.689         202.661         202.987         202.646         202.563         203.097         202.395         202.929         202.083         201.987         201.892         208.292         208.347         203.621         195.518         196.43          196.441         196.452         196.464         196.378         197.327         194.628         198.152         198.028         229.097         12.1135         292.173         72.4455         72.3393         74.0475         73.9455         75.541          75.431          72.6698         73.3916         75.2561         75.062          74.868          74.674          74.6269         74.4987         331.054         74.5364         10.2695         75.2932         75.1452         74.9971         349.505         40.7723         6.69539         -27.0353        212.676         212.813         212.95          212.177         -59.1621        -25.2861        279.317         314.082         77.3654         76.2077         76.0736         75.9395         77.3896         77.313          77.2364         77.1598         77.7986         77.7073         77.6159         77.5245         77.4331         77.33           77.2269         76.9624         77.8615         77.7387         77.6159         77.4931         79.1103         48.2606         263.341         -14.6164        202.453         201.864         202.144         202.423         199.807         -13.4947        17.5355         47.6222         78.1807         78.0794         78.6764         77.8767         78.4738         78.3799         78.286          78.1922         78.8434         79.434          80.1854         80.6152         82.2058         75.0857         82.0159         75.0769         73.7589         73.8594         83.6168         83.5357         86.6571         85.4053         81.0386         82.9017         81.0167         81.5358         80.7964         80.6863         82.1147         82.0048         81.8949         81.785          82.6412         81.7166         83.1621         82.3352         83.8029         83.0452         83.5898         82.6453         82.7035         84.0626         83.1721         82.3521         83.7559         84.5087         83.842          84.2939         84.5348         84.0823         83.978          84.6932         85.5543         84.4746         83.9102         84.4851         85.0967         85.9141         85.7954         85.0362         63.8922         66.8165         90.7594         93.6837         66.7334         97.1247         96.8197         65.334          87.5889         87.4497         98.2784         98.1392
196.838         208.942         205.986         205.726         205.465         205.205         204.944         207.865         204.798         204.725         -355.217        199.182         199.042         361.039         251.153         359.573         308.189         206.924         205.42          206.158         200.569         202.047         202.784         203.205         202.727         202.96          202.838         202.535         202.451         203.416         201.367         202.452         202.684         201.08          200.984         207.535         207.589         207.643         194.76          194.771         195.486         195.497         195.508         196.767         197.179         196.399         198.194         229.073         260.142         292.149         72.6712         75.1777         72.4588         74.9739         73.9323         73.8277         73.723          73.6184         75.2744         75.0804         74.8864         75.3709         74.4983         42.299          74.5359         -21.5009        299.043         330.889         42.0594         75.0893         349.727         41.4713         7.26409         -26.9431        212.898         213.036         213.173         213.31          -59.0804        245.383         8.67163         42.5476         75.7694         77.2882         76.1554         76.0213         77.4206         77.344          77.2674         77.1908         77.8218         77.0228         77.639          77.5476         77.4563         77.3531         77.25           77.1469         77.8926         77.7698         77.647          77.5242         77.8805         294.11          16.1248         -14.753         201.477         201.756         202.242         202.191         202.879         233.741         264.604         291.043         78.688          77.9444         77.8431         78.384          78.2827         78.1888         79.6176         78.7433         78.6494         79.24           79.8306         80.4212         82.1665         82.0716         81.9766         81.8817         81.7867         82.5363         74.1473         74.2478         82.2929         82.2819         84.2327         82.26           82.6546         80.9857         82.4263         80.7655         82.1979         83.0023         81.9781         81.8682         82.6726         83.3521         82.4755         83.155          83.2432         82.9499         82.0969         82.7367         84.2341         83.6224         83.5053         83.154          84.6859         84.0187         84.4711         83.5029         84.2563         83.5865         84.3743         83.9436         84.6515         84.062          84.4227         85.2987         84.4834         85.0657         84.2326         85.7576         85.6389         65.7095         57.402          97.9756         74.4824         97.2147         96.9096         64.227          87.6788         87.5397         103.296         103.156
196.827         192.951         197.576         203.049         202.844         204.71          203.283         204.014         200.54          201.022         200.363         201.854         202.205         201.063         200.923         196.816         208.078         194.175         205.693         199.792         200.635         208.222         202.321         199.654         203.055         202.933         202.81          202.7           202.59          202.479         203.252         202.398         206.544         207.522         206.668         206.288         206.777         205.885         206.451         206.727         206.989         207.278         205.349         207.144         194.581         196.376         198.17          227.571         10.1646         289.876         72.897          72.3759         72.2818         72.1876         73.3219         72.698          72.598          72.498          73.7405         73.5465         74.9047         73.1584         74.5167         74.3849         74.5543         73.897          74.4414         74.2933         74.1453         75.1814         75.0334         40.9566         74.2343         74.1483         211.341         211.197         211.053         212.06          211.916         -26.1974        211.637         211.858         75.8512         -24.8865        8.72571         446.32          76.4868         44.752          76.2815         76.1789         76.8974         77.5918         335.045         77.3934         77.2942         332.264         77.8651         77.0087         77.6748         79.7087         79.4181         76.8031         78.837          222.72          222.294         340.155         202.236         202.185         202.134         202.082         202.44          223.852         223.581         48.128          78.9904         78.8329         79.935          350.608         79.6201         80.2976         80.2008         79.3298         80.0073         -21.0426        79.7975         80.5317         80.4268         80.3319         80.9966         80.9016         80.8067         80.2153         80.4244         81.2123         81.1312         80.5225         81.1093         81.0983         81.175          81.9457         80.1773         80.8447         81.6154         80.841          80.734          80.6269         82.0083         81.9063         81.8044         81.8322         82.4162         81.6293         83.0996         82.2817         82.8718         82.7547         82.882          82.764          83.3403         82.5287         83.1265         82.2939         83.7678         84.5484         82.9431         83.6774         84.2138         83.4693         83.3684         84.1203         84.571          84.4456         85.3234         83.6608         85.0726         86.2318         87.9893         93.8455         73.3754         97.3046         90.7469         90.4677         87.0492         56.1875         96.6254         99.7168
196.864         196.585         203.361         203.156         202.951         204.816         202.54          203.022         204.85          199.49          200.22          201.712         199.94          202.413         201.271         200.079         206.792         205.471         205.913         200.103         200.946         206.95          200.148         203.428         201.424         201.241         203.061         202.95          202.84          202.73          202.643         201.789         200.935         207.584         206.238         206.784         207.276         207.178         206.361         206.99          206.912         207.188         204.892         193.005         194.8           196.595         198.389         227.79          258.943         41.632          72.9503         72.4292         72.3351         72.241          74.2292         72.7635         74.0199         73.9153         75.3487         75.1547         74.9606         72.6248         74.5726         74.5914         74.4683         74.629          74.506          74.3579         74.2099         75.2598         74.4847         74.3987         -26.9717        279.487         347.774         245.266         245.123         212.15          -93.9177        211.505         211.727         8.13094         42.1472         41.9883         8.79279         42.405          46.2795         387.691         46.0742         325.295         305.147         45.7697         303.084         45.5713         45.4725         45.3773         45.2822         45.187          310.737         305.223         44.5107         309.141         46.0125         292.384         261.534         307.331         199.835         199.784         199.733         199.682         199.73          -47.4395        261.455         220.601         45.1477         44.9902         316.923         44.6753         316.756         46.5001         46.4033         46.3066         80.882          46.1049         80.6722         80.5674         81.2321         80.7428         80.2725         80.9472         80.4878         80.4789         80.47           81.3301         81.249          80.2722         81.2271         81.2161         80.514          81.1593         81.2736         80.9391         81.0314         81.8069         82.2794         80.7104         82.1931         82.101          82.7047         82.6027         81.8246         81.7139         82.4801         81.4923         82.2585         82.1406         82.7251         82.608          83.7035         83.5861         82.4981         83.1064         83.2339         83.1266         83.0193         83.7578         83.6505         83.5497         83.4489         84.7293         84.0884         84.5146         84.7882         85.2728         85.1474         86.3066         88.0641         93.9203         81.0194         97.4001         76.5575         88.6115         87.1448         90.8578         96.7209         101.509
196.9           196.776         195.345         207.776         203.057         202.852         202.647         203.128         203.609         200.737         201.218         201.569         201.92          202.271         201.619         200.427         207.012         207.326         199.57          200.413         201.256         208.662         203.8           201.856         202.697         201.491         201.309         202.365         203.09          202.98          202.034         206.85          200.325         207.645         206.054         207.283         206.9           207.088         206.991         203.609         206.809         206.717         204.436         189.445         213.031         196.814         198.609         -20.9514        10.2714         41.6854         73.8779         72.4826         72.3885         73.0231         73.4529         74.1947         74.09           72.629          75.4046         73.6867         75.0165         72.695          73.9436         74.6473         74.6661         74.6849         74.5706         73.9195         74.2745         75.3382         74.5631         381.71          347.633         -27.0404        6.9255          279.336         279.192         212.241         212.097         211.596         -59.5893        -25.5731        -58.3646        -24.7524        76.9388         7.96641         76.621          356.663         325.464         76.313          13.7691         262.036         14.6421         13.4715         12.8896         12.7944         267.625         12.6041         277.913         277.381         276.849         13.4785         320.833         289.983         259.133         228.284         197.224         219.783         215.92          197.281         197.02          227.882         258.744         -19.5574        283.405         11.1475         281.712         281.545         11.9149         11.8181         12.6058         282.611         80.9176         80.8128         80.7079         80.603          80.4981         80.4031         80.3082         79.9582         80.8978         80.451          80.7355         80.6544         80.4243         81.3559         80.3557         80.3213         80.6084         80.4873         80.3662         81.0335         82.5505         82.4523         80.9008         80.7938         82.2776         81.4684         81.3763         82.6872         82.5852         82.6785         81.6876         81.5768         82.3461         83.8653         82.8127         83.631          83.5139         83.6624         83.3001         83.4276         84.1602         83.8088         84.5978         83.5858         85.0661         83.6302         83.5294         83.4286         84.1573         84.0378         85.473          85.3476         85.2222         86.3814         65.3428         89.8964         79.9274         97.4957         90.9379         88.707          87.2403         92.0284         60.2341         101.605
196.937         204.431         203.154         202.949         206.456         205.029         202.753         199.631         200.113         205.792         201.076         202.388         199.655         199.515         199.181         200.775         199.583         198.39          204.591         205.525         201.567         199.835         203.253         203.13          201.924         201.742         201.559         201.756         203.34          207.267         207.095         206.912         206.728         206.545         206.361         206.018         206.167         206.07          206.181         206.457         206.719         206.627         203.979         205.774         195.238         197.033         197.075         230.146         261.464         41.4774         73.9434         72.536          73.7309         72.3477         73.5184         74.2648         72.7945         74.0555         73.9509         74.862          74.6538         73.3688         74.6843         74.0357         74.5975         74.7408         74.6352         73.9841         73.8499         75.4166         41.3388         74.5555         74.4695         347.625         313.549         6.87208         212.475         313.117         212.187         246.203         211.908         -59.2772        244.371         -25.4199        77.0058         345.208         356.832         44.9532         13.7551         -17.4431        -16.188         -16.2872        -16.3864        238.13          -18.5886        -19.7885        -19.8836        -19.9788        -18.4743        -20.3645        -20.655         -19.346         -19.6366        -50.4862        -81.3359        214.666         217.433         213.879         194.411         213.158         215.991         225.172         256.034         215.181         249.553         249.385         -22.8526        -21.7803        -20.9981        249.12          249.078         -21.2884        80.9533         80.8484         80.7435         80.6386         80.5337         80.4387         80.0788         81.0383         80.9433         80.5688         80.7811         80.551          80.5421         81.4737         80.7715         81.4518         82.3061         80.5817         81.4405         80.3395         81.1983         81.7674         80.9842         81.571          82.2322         82.9756         82.8737         81.3588         83.5902         83.4763         81.7721         81.6613         83.3782         83.0175         82.9003         82.0799         83.6006         83.4938         82.6716         84.1035         84.9013         83.2792         83.7736         84.5668         85.135          85.0457         84.9564         84.1874         84.7779         85.0573         85.5478         84.4017         85.297          73.5628         64.2508         67.1751         101.01          97.5912         91.0335         88.8025         87.3358         92.1239         96.912          100.003
194.375         204.329         202.039         201.833         203.483         203.064         202.859         203.34          203.822         200.452         200.933         205.323         201.635         207.349         199.53          208.773         204.134         206.132         204.812         202.52          203.267         204.014         201.079         200.896         199.239         199.093         201.809         204.906         207.628         203.303         205.688         205.505         206.79          205.138         206.423         207.103         206.228         204.643         206.811         208.076         206.629         206.537         207.176         209.647         212.118         -84.1975        197.294         -53.3882        72.031          71.9575         72.6835         72.5894         72.5975         73.1541         73.06           73.7601         72.86           72.9102         73.46           72.6563         72.5059         73.3281         74.2931         74.3206         74.3482         74.1554         74.1829         74.0487         74.235          73.3469         74.7199         74.6339         74.5543         74.4618         75.064          311.991         6.81866         245.677         211.555         211.776         211.998         211.707         210.667         244.28          215.605         311.504         76.2185         45.0203         13.8221         -17.376         201.011         211.622         207.201         210.217         205.138         217.419         212.644         202.987         208.006         219.149         206.942         206.41          210.135         217.198         220.089         216.363         211.839         214.362         211.118         220.832         213.281         215.172         219.988         214.631         214.361         214.194         221.016         215.198         215.031         214.989         222.216         215.239         215.197         359.218         282.654         316.382         80.2844         80.1994         80.7944         80.7094         80.6244         80.6866         12.1183         80.6688         80.6599         80.9002         80.5913         80.557          80.7973         82.7472         81.5239         80.4339         81.2817         82.0308         83.1091         82.9976         81.7098         82.7809         82.2624         82.1703         82.0782         81.9674         81.8566         83.0533         82.5213         83.3471         82.2854         82.1675         82.9932         82.8758         82.8545         82.641          83.4627         83.1177         83.2481         83.9993         83.892          83.7759         84.4969         83.5466         84.2952         83.3033         85.0126         83.9366         84.7735         84.2024         84.422          84.6416         77.7434         93.3599         87.8767         87.1868         86.6671         89.4141         95.6217         100.099
195.899         204.386         201.641         201.89          203.259         203.054         198.585         199.066         203.812         200.029         203.889         200.862         199.067         199.418         199.769         196.673         195.493         194.313         205.191         198.473         207.058         200.339         201.273         199.579         202.404         202.222         202.039         205.304         208.026         203.701         207.339         206.343         205.72          205.544         207.373         205.039         206.411         207.081         206.984         208.249         206.802         206.71          186.779         212.561         -83.7542        279.428         72.2779         72.2044         -22.1355        72.0574         71.9839         72.6893         73.3333         71.657          73.9417         73.8417         72.2577         72.845          75.2656         73.3334         73.618          73.4675         74.4325         74.1637         74.1913         74.2188         74.2463         74.1121         73.5199         73.4103         74.8079         74.7219         74.6359         74.5499         74.4636         40.4541         279.999         -27.5648        210.162         211.975         212.197         212.419         211.493         -56.3515        294.358         311.386         214.427         213.548         296.593         295.714         208.179         207.148         209.505         208.802         217.051         203.335         211.559         207.767         207.05          206.518         210.264         209.732         216.681         219.58          215.845         207.922         218.327         220.601         220.266         209.831         214.556         214.285         219.086         218.832         220.563         220.347         220.13          214.263         214.095         214.054         221.281         222.635         214.156         247.884         324.307         315.34          46.2837         46.1987         323.24          323.315         80.6152         357.981         80.5975         80.5886         80.5797         80.5454         80.5111         80.6762         80.6419         80.5208         81.3813         80.2785         82.2797         82.1683         81.7767         82.8506         81.5627         82.1943         82.1022         81.2864         81.918          83.8872         81.6964         82.8932         83.0414         82.252          83.2126         83.0946         82.9753         82.9554         82.9355         82.9157         82.8958         84.3356         83.3291         83.2218         83.0398         82.9251         83.7691         84.504          83.5398         83.4112         84.164          84.9918         86.9389         71.0317         84.5208         84.7404         87.8172         93.4619         91.231          69.6115         85.9533         54.5138         58.9911         100.201
204.707         203.429         201.698         201.947         203.249         203.044         202.839         203.32          203.802         204.283         200.089         198.956         200.79          201.141         200.008         198.688         208.212         203.713         202.533         203.28          204.027         199.171         201.466         202.817         199.626         202.452         202.269         209.395         204.901         204.1           206.485         202.899         207.155         205.727         206.787         206.69          205.114         207.255         207.157         207.066         206.975         206.883         189.693         -83.3109        251.459         -21.5453        9.33755         72.3044         72.2309         41.7307         72.0839         72.7892         71.8659         72.6586         73.3838         73.9234         72.3428         73.7233         75.4051         75.1968         74.9885         74.7802         73.4565         74.5995         74.2547         74.6546         74.3097         74.5206         74.0413         75.0302         74.8959         74.8141         74.7239         74.6376         346.399         40.5399         6.53043         246.075         211.953         212.174         212.396         212.618         211.375         244.044         -54.4725        -20.8603        213.013         -18.4463        211.255         -80.8426        207.094         213.758         205.031         203.999         208.962         208.245         210.474         214.331         206.094         213.232         205.03          204.497         208.265         207.839         214.91          214.493         212.919         212.558         212.198         208.904         218.693         218.438         218.184         212.859         212.589         212.422         212.254         212.087         222.038         213.118         220.346         213.035         213.114         246.843         289.467         221.234         11.603          289.4           11.433          11.348          11.263          80.5262         11.9579         80.5084         80.4995         80.5895         80.9221         81.8391         82.5704         81.6212         82.3538         80.1232         83.038          80.8895         82.815          81.8027         82.5921         81.3236         82.3816         83.1443         82.6617         82.5509         82.4402         81.4255         83.0249         82.1006         83.4635         83.4804         82.9601         82.8427         83.0165         82.9967         82.9768         82.9102         82.8437         83.2281         83.1615         83.0469         82.9322         84.6119         84.5111         84.5665         83.3904         85.0907         67.8351         69.5926         84.6197         84.8392         86.3781         85.6883         87.4349         68.1724         86.0552         89.6181         93.1809         62.6559
183.819         197.671         201.755         203.725         201.211         203.034         202.909         203.31          202.906         199.185         203.044         200.017         205.069         199.897         200.248         197.152         208.592         204.093         202.913         203.66          199.793         199.365         201.66          203.047         202.865         202.682         200.659         199.858         199.056         207.853         206.884         207.521         206.517         206.333         205.51          206.873         206.776         205.19          216.283         207.239         211.244         189.958         -82.8676        218.389         220.859         223.33          72.4778         72.4043         72.3308         40.4432         72.9833         72.0748         71.9658         71.8568         74.105          74.005          73.905          72.3244         75.5445         75.3362         75.128          74.9197         74.7114         74.2905         74.7665         74.3456         74.3731         74.2389         74.1047         75.1182         74.984          74.8979         74.8119         74.7259         346.598         314.519         280.397         -27.0467        210.56          209.648         212.595         212.817         211.257         228.894         215.251         217.248         211.599         210.72          233.127         208.961         206.009         212.673         206.677         211.267         208.006         207.289         206.572         213.375         205.138         208.926         208.394         211.253         207.33          206.904         206.478         216.891         216.473         208.698         208.338         207.977         219.808         217.536         212.243         217.028         218.791         220.356         220.14          219.923         219.707         212.198         219.411         220.553         212.073         220.334         220.263         220.193         -23.0777        -23.1627        254.635         253.953         -57.3056        80.446          11.8777         80.4282         80.4194         81.9027         80.3507         80.3164         81.5742         80.21           81.3575         79.9678         82.891          81.8831         81.7716         82.5565         82.445          83.1946         83.0894         82.9842         82.879          82.7769         82.6749         82.5729         83.2783         83.2974         83.3121         83.329          82.9436         84.0579         83.0362         83.0163         84.6864         83.5984         84.4718         82.8581         83.2832         84.1564         83.985          82.9393         84.7939         84.6653         84.3799         85.1895         84.2793         68.1535         84.7185         84.7194         84.939          84.2491         87.5369         82.8695         86.9731         89.72           93.2829         96.8457
184.397         182.598         201.811         203.715         202.734         202.463         202.899         202.968         202.483         203.051         202.622         203.634         203.67          204.011         198.572         197.391         204.834         205.099         203.293         204.039         196.235         195.623         200.305         200.159         206.117         201.035         200.889         205.474         205.103         204.896         204.095         205.854         206.491         206.358         205.693         206.438         206.332         205.373         206.119         208.768         211.417         192.872         195.521         205.752         10.2242         52.2375         71.9898         72.5042         72.4307         72.3572         72.2838         72.1748         72.0658         71.9568         72.7197         72.6163         72.5129         72.4095         73.1334         79.0094         79.0185         79.0277         73.7354         47.5379         74.0263         73.9778         73.9293         355.184         74.5871         416.695         74.3678         74.2795         74.8974         74.103          74.7209         40.7114         16.7531         215.37          210.759         211.425         210.568         210.473         211.139         211.015         215.133         201.155         203.152         208.392         208.426         207.547         206.668         205.965         205.263         212.479         209.479         213.595         208.303         207.715         211.831         211.32          210.808         212.774         213.876         220.883         220.416         212.622         215.546         215.211         214.875         221.833         216.889         221.072         220.721         218.159         217.905         225.173         219.204         218.988         218.771         225.573         224.081         225.253         219.363         224.983         219.222         219.151         219.645         226.901         219.198         219.273         219.347         364.851         226.682         226.697         80.9807         81.7473         81.6378         81.5283         81.4188         81.3105         82.0686         81.0939         81.852          81.7405         81.629          81.5175         82.298          82.1927         82.0875         81.9823         82.7188         82.6168         83.331          82.6072         83.1269         83.0087         83.1607         83.0424         83.0593         83.0395         83.0196         84.3754         83.1388         83.0722         83.0057         82.9391         83.405          83.2903         83.1757         83.9782         83.8636         83.7349         83.6063         83.4776         84.3782         84.5977         84.8173         83.2803         83.4999         82.81           87.6389         86.949          86.2592         89.822          93.3848         96.9477
206.734         203.965         203.366         203.094         203.531         203.26          202.988         203.135         202.151         202.507         202.941         194.818         202.903         203.245         197.855         203.852         206.382         205.202         204.022         206.542         198.182         206.263         199.676         200.708         205.498         200.416         200.27          206.311         198.667         204.113         203.906         207.354         205.918         202.708         206.156         206.049         209.165         205.836         172.232         211.601         214.251         216.9           180.232         228.588         259.471         290.354         70.9958         70.9223         71.4789         78.9776         71.332          71.223          71.114          71.005          78.7126         71.7602         71.6568         78.7707         73.7636         77.7239         77.733          73.3121         77.7513         46.9642         42.7139         323.903         293.116         42.5073         42.3977         46.7429         77.4985         73.8323         74.5376         74.4494         350.023         46.8164         16.3932         247.995         213.985         220.509         217.246         213.984         210.722         211.075         211.427         199.57          207.686         208.956         208.077         208.756         211.996         211.293         204.913         209.888         216.81          208.597         208.009         209.618         219.402         210.974         218.187         209.952         220.859         213.016         219.924         212.18          218.989         218.579         218.168         221.266         220.856         220.505         217.75          217.496         217.242         222.29          222.033         221.776         219.239         217.92          218.943         218.795         219.172         219.102         218.506         218.435         218.89          218.211         219.039         218.36          218.434         253.026         -23.692         10.8996         45.4913         46.6142         46.5047         46.3951         82.3562         82.2479         82.1396         82.0313         81.923          81.8115         82.6009         81.5885         83.2268         83.1216         82.1675         82.0623         82.806          82.7039         83.4097         82.4999         83.2057         83.2226         83.2395         83.2563         83.0775         82.9899         82.9701         84.2347         82.9981         82.9315         82.865          83.2901         83.2235         84.0261         82.9942         84.3313         83.6822         85.0334         84.4829         83.2962         84.2256         84.4452         87.0034         84.8843         83.0279         88.4119         87.7221         87.0322         86.3424         89.9052         93.468          150.122
185.567         204.053         201.987         203.183         203.62          203.348         203.076         203.145         202.392         202.462         202.895         203.237         204.556         205.569         209.472         203.135         203.401         203.667         204.751         196.807         205.301         204.69          199.047         205.015         198.755         204.742         204.605         198.849         205.321         203.494         205.225         207.817         207.418         202.52          202.914         205.178         206.406         186.854         189.292         191.941         193.118         197.24          199.889         230.772         237.825         292.538         77.954          78.0883         78.0571         78.0258         77.9946         77.9812         70.1622         77.9546         77.4561         71.977          77.8952         77.9146         77.5335         73.0394         77.5518         72.7384         77.1776         354.165         72.491          -15.1839        11.3046         73.8022         15.5402         354.07          76.8831         73.3851         73.2968         77.0487         76.8797         39.9918         285.231         -28.0271        211.639         188.138         184.875         216.926         211.252         193.991         195.988         217.249         212.662         207.693         208.05          206.849         205.97          210.999         207.468         209.594         216.465         215.825         215.185         207.127         211.139         218.352         214.013         209.606         216.529         216.062         215.594         218.965         218.497         218.087         213.891         217.266         220.289         219.938         219.588         216.833         218.23          223.766         216.146         221.113         224.301         217.216         218.227         216.92          217.931         218.347         218.276         218.205         217.223         217.298         218.284         224.909         217.521         224.841         224.856         224.871         291.23          294.164         9.78276         9.67325         82.4271         82.3188         82.2105         82.1022         82.2283         82.7923         81.7709         81.6594         82.4578         82.3526         82.2474         82.2938         82.1958         83.5905         82.6891         82.587          82.8927         82.9096         83.3182         82.32           82.9368         84.316          83.1346         82.8772         82.8574         82.7908         82.7243         83.1086         83.9594         84.3791         82.8128         83.6154         83.5008         83.3722         84.3303         83.1149         84.073          86.6313         86.5314         84.7317         82.5559         88.4951         87.8053         80.4864         86.4256         89.9884         93.5513         150.205
206.91          204.141         202.075         201.1           203             202.728         203.164         203.234         202.347         202.416         202.85          203.191         203.533         203.875         210.202         202.419         194.062         206.661         205.481         199.034         198.423         204.061         203.45          204.395         198.126         204.122         206.519         205.934         205.133         204.331         208.679         208.28          202.731         205.793         207.082         206.975         206.869         206.762         191.952         217.268         196.775         199.424         202.073         -6.15386        7.24204         38.1249         76.96           69.6488         77.1053         77.074          77.0536         69.3194         69.2104         70.2604         70.1514         70.0479         77.0391         77.0584         72.6162         76.8093         76.5856         70.4819         72.0142         322.853         292.066         -15.7576        -46.4181        -15.6626        15.0929         322.758         73.0261         76.6031         72.8496         72.7613         73.6415         285.896         255.472         -28.3869        220.438         220.343         211.509         211.413         210.841         211.194         211.546         217.309         209.137         208.258         211.79          212.147         205.62          204.918         212.244         211.597         208.597         208.009         209.67          214.2           210.793         217.91          217.302         213.06          216.087         219.407         218.94          214.685         221.364         217.595         217.185         213.064         222.623         219.372         219.021         218.671         221.221         217.31          217.093         220.449         217.806         217.658         217.51          216.216         223.86          217.144         217.521         217.45          223.421         217.454         217.529         223.171         223.912         251.2           -94.6709        223.958         -25.4877        258.675         256.591         -23.8711        -23.9806        -24.089         82.2815         46.4015         82.0649         81.9534         81.8419         82.6493         82.5378         81.8003         82.3274         82.2222         82.9803         83.6693         82.0622         82.8435         82.8431         83.3801         83.397          82.3988         82.9107         82.8908         82.7564         82.9741         82.7167         83.0603         83.6277         82.517          83.778          82.746          82.6313         82.5167         83.3194         84.3064         85.3407         84.0491         83.9204         86.1593         86.0595         84.5792         86.3817         86.2471         87.8885         80.0144         85.8432         90.0716         128.806         150.288
184.846         182.077         201.46          203.36          203.088         202.817         202.545         202.947         202.416         202.351         202.804         203.146         203.487         201.096         201.437         203.458         203.618         200.11          200.375         203.692         204.044         203.201         202.821         202.684         203.64          202.538         203.367         202.996         202.626         205.219         204.848         205.1           200.511         205.605         203.84          187.994         190.257         201.914         194.785         180.784         176.601         200.785         186.784         294.481         20.5567         294.691         75.966          75.9347         76.1535         76.1222         76.091          84.4555         76.0643         76.1576         76.1442         76.1636         84.4553         76.0475         76.0668         84.7361         76.0119         84.6899         76.0302         45.243          260.753         -3.90645        199.179         -3.96117        14.6457         45.4012         76.1568         76.1559         76.1551         -1.07776        76.1601         289.122         203.473         -15.1093        197.853         220.687         216.369         213.555         210.901         211.253         214.137         209.139         209.492         209.848         207.352         208.884         208.065         212.598         211.95          209.01          210.655         207.841         209.376         208.736         213.214         212.606         217.618         208.741         215.645         220.508         218.448         214.106         217.514         217.103         219.976         219.566         219.156         221.08          218.454         220.908         220.558         220.301         220.043         225.366         221.587         224.758         227.098         221.106         222.228         222.995         227.917         226.016         222.666         227.483         227.409         227.335         222.999         223.015         227.711         222.923         222.939         228.992         223.432         221.705         221.951         229.23          11.3766         46.4724         81.5682         81.4657         9.70374         82.0807         81.9782         81.8802         82.5661         82.4682         82.3702         83.1431         82.1493         82.0389         82.8118         83.5918         83.4804         82.4775         83.2576         83.1465         83.0355         83.8126         83.7016         84.4527         83.487          84.2381         84.1308         84.9329         84.8183         84.7037         84.5891         85.2879         85.1881         85.0883         84.9884         84.8886         84.7888         85.4876         85.3878         85.2532         85.1185         84.9839         85.9264         -64.4448        128.89          -21.4816
185.371         204.928         201.612         200.832         200.829         203.063         202.792         203.07          203.005         202.598         202.876         202.232         203.559         203.886         203.816         201.363         201.628         204.296         199.93          203.247         203.002         203.623         202.741         203.071         202.764         202.458         205.113         202.747         202.376         205.227         204.857         205.109         205.361         203.872         183.866         206.388         202.082         190.657         168.627         181.03          176.846         198.921         187.03          -34.5017        185.276         267.338         75.1431         75.1118         75.0806         57.3514         75.0181         75.0048         75.1263         75.113          83.7633         75.1191         75.1384         74.9609         83.6727         83.6496         83.9082         74.9022         83.862          54.2329         258.162         -17.4501        199.218         -17.2035        13.552          44.3075         75.063          55.1514         26.4899         75.0605         284.44          15.9827         -14.4405        281.149         197.424         220.707         217.445         213.575         214.003         207.904         213.606         211.978         208.961         206.805         207.162         210.031         209.392         207.228         206.58          205.933         216.006         210.283         209.643         214.087         211.584         212.839         216.831         216.719         215.615         218.763         214.681         214.213         220.506         220.095         219.685         216.13          218.864         218.513         220.378         223.425         225.945         219.95          219.692         222.006         227.099         220.996         224.057         223.786         226.015         225.835         222.274         225.475         226.946         226.872         226.798         221.805         222.397         222.223         227.109         227.056         227.628         227.655         222.762         223.009         331.725         331.883         332.042         332.201         45.7409         82.3682         403.974         82.1632         82.3212         82.7342         82.6362         81.99           83.3367         83.2263         82.4237         82.109          82.2291         82.7836         82.6722         81.8727         83.6213         84.1099         83.9988         83.8878         84.6301         83.6695         83.5622         84.3082         83.6398         84.0863         84.8909         83.8571         84.6617         84.5619         85.2716         84.3622         84.404          85.7517         84.8723         85.552          85.4522         85.3175         85.1829         85.0482         86.0053         -64.2079        128.969         150.45
