202.338         202.456         203.019         202.858         202.698         202.928         203.207         203.102         201.534         201.813         201.534         0               197.959         197.035         195.841         194.646         194.673         193.338         204.428         191.489         190.565         187.995         186.659         185.324         95.8816         95.7784         95.6751         95.5718         95.441          95.3653         95.262          95.1587         95.1382         95.0625         191.064         94.9111         191.427         191.608         191.789         191.987         192.16          192.333         192.514         192.696         192.861         193.025         192.861         192.696         192.532         193.684         193.597         193.51          193.422         194.033         193.041         195.67          194.458         193.466         199.957         199.03          195.789         197.175         198.309         189.149         197.985         197.823         197.702         197.58          197.522         198.308         198.196         198.172         196.908         198.759         198.667         199.31          197.559         199.126         198.382         198.292         198.202         199.396         199.368         199.34          199.312         199.507         199.195         199.294         199.287         199.486         199.299         199.318         199.429         199.441         199.411         199.186         199.192         199.56          199.594         199.589         199.545         199.579         199.124         201.117         200.794         199.319         199.224         199.887         199.035         199.697         199.64          199.582         199.985         199.927         200.68          199.611         200.666         200.56          200.559         201.022         200.081         201.199         200.706         201.446         200.475         201.73          202.698         201.032         201.484         202.283         203.278         201.181         201.78          202.851         202.707         201.467         201.364         203.43          203.288         204.278         204.136         203.995         203.843         202.072         201.967         204.602         205.724         204.281         204.121         205.243         206.478         206.302         206.125         205.949         205.75          202.309         205.351         206.745         206.55          206.354         206.159         207.526         207.33          202.309         208.509         208.312         209.815         209.6           209.386         209.171         210.58          210.379         210.178         209.976         211.259         211.076         209.426         210.709         210.531         211.779         211.601         211.423         211.269         211.116         210.962         212.036
202.247         201.821         202.429         202.907         202.193         202.977         201.028         203.151         203.433         202.07          201.791         201.236         201.233         199.926         198.193         0               195.919         194.584         193.659         190.357         189.022         187.686         96.0882         95.9849         95.8816         177.371         177.639         95.5718         95.441          95.3653         178.1           178.236         178.373         177.95          177.988         178.025         191.299         191.481         191.662         191.863         192.036         192.209         192.39          192.572         192.766         194.463         193.004         192.84          192.675         193.804         193.717         194.242         193.543         194.067         194.209         195.429         194.492         195.159         195.288         195.418         195.547         198.694         197.828         189.964         189.21          198.919         197.925         198.677         198.555         198.434         198.321         198.278         198.977         198.865         197.898         198.681         198.589         198.554         199.254         198.374         199.006         199.455         199.386         199.399         199.371         199.24          199.233         199.555         199.313         199.306         199.325         199.451         199.463         199.208         199.444         199.22          199.225         199.844         197.358         199.619         199.614         201.619         201.296         199.045         199.11          200.327         199.831         199.736         200.852         200.751         199.489         200.609         199.374         201.074         199.606         199.447         201.054         200.647         200.547         200.228         200.969         200.869         202.192         201.51          201.395         201.279         201.779         201.687         201.005         201.504         202.252         202.033         201.186         204.196         204.052         203.907         203.763         202.958         204.633         204.492         204.351         204.209         204.058         203.906         203.754         206.254         206.094         204.542         204.382         202.645         206.977         205.26          205.084         206.448         206.249         202.893         205.851         202.663         208.725         208.529         206.742         208.139         207.942         207.746         207.549         208.963         208.749         208.534         204.35          205.123         204.984         211.152         204.705         212.269         212.086         205.184         205.054         204.924         204.796         211.179         212.477         213.482         213.329         213.175         204.694         206.211
202.157         203.498         203.116         203.262         202.284         202.636         203.305         203.2           203.862         202.327         202.52          201.769         202.665         201.74          200.546         198.501         197.165         195.83          197.215         190.048         188.713         187.377         186.041         184.706         177.756         177.893         178.161         178.429         178.432         178.47          178.606         178.743         178.49          178.511         178.549         178.586         178.864         178.744         178.765         191.716         191.912         192.085         177.69          0               192.67          193.713         193.148         191.788         191.6           194.451         194.344         193.75          193.663         193.825         195.322         194.385         193.42          192.983         201.587         200.659         199.732         198.917         198.643         190.778         198.319         198.43          198.211         198.026         197.905         198.56          197.423         198.385         198.253         198.121         198.004         199.473         198.752         198.636         198.546         198.456         198.365         199.042         199.486         199.458         198.897         199.278         199.271         199.264         199.257         199.166         199.473         199.369         199.388         199.241         199.247         199.253         199.259         199.146         199.317         199.688         199.658         201.475         201.152         200.829         200.506         199.775         200.904         200.803         200.702         200.6           199.339         200.459         200.388         199.6           200.903         200.897         200.641         201.316         200.534         200.434         201.454         201.806         201.69          201.575         201.459         201.344         201.252         201.798         201.707         201.616         201.509         201.403         201.297         204.385         202.608         201.761         201.658         202.299         203.057         202.067         204.565         203.456         204.272         202.5           205.275         206.624         206.464         206.304         204.643         203.021         203.096         207.3           203.001         206.947         206.748         206.549         203.361         207.911         203.08          207.521         208.947         210.4           203.692         210.007         209.811         205.525         209.399         209.185         208.97          210.593         212.126         211.925         209.989         213.095         211.339         212.729         210.972         212.362         213.71          213.532         211.827         213.175         213.022         212.868         213.854         208.413
202.024         202.002         201.842         202.493         201.522         200.426         201.132         203.632         203.911         202.204         201.922         201.64          0               0               0               197.655         197.655         197.076         193.609         189.563         177.089         177.357         177.625         177.893         178.278         178.415         178.683         178.951         178.939         178.976         179.113         179.249         179.051         179.072         179.11          179.147         179.35          179.23          179.251         179.272         179.293         191.961         194.569         192.323         194.944         194.704         193.645         194.374         193.27          194.045         194.398         194.311         194.032         192.174         192.316         194.42          193.455         203.329         202.401         190.886         200.547         199.62          198.978         198.215         190.84          198.492         198.371         198.928         198.807         198.755         198.573         198.46          198.359         199.739         198.986         198.894         198.802         198.718         199.372         199.236         198.447         199.572         199.053         199.004         198.956         199.317         199.309         199.302         199.295         199.357         199.376         199.395         199.414         199.885         199.28          199.203         199.209         200.332         197.846         199.556         199.752         201.332         201.008         200.443         200.362         200.854         200.753         199.435         200.551         200.45          200.959         200.308         200.817         200.746         200.74          199.12          200.726         201.364         201.263         201.163         200.322         201.87          201.754         200.732         201.523         201.408         202.001         201.91          201.818         201.727         201.621         201.515         201.408         202.9           202.012         201.909         201.805         203.387         205.062         203.713         203.04          202.924         202.819         202.714         203.402         206.995         205.224         206.674         203.144         203.643         207.975         207.799         207.623         207.446         207.247         207.048         203.944         203.829         209.95          208.104         207.908         209.364         204.305         210.658         210.461         205.058         210.05          209.836         205.772         213.1           205.478         210.901         210.699         207.096         213.739         213.555         205.723         214.765         206.449         214.408         207.169         207.04          213.898         213.745         214.686         214.533
201.933         202.093         202.253         202.413         203.015         202.733         203.015         195.913         203.579         201.605         201.323         176.13          200.759         0               194.048         194.048         194.048         194.048         190.002         177.329         177.597         177.865         177.597         177.329         179.205         178.937         179.893         178.663         178.527         179.483         179.745         179.408         184.212         179.633         179.612         179.758         179.737         179.716         179.836         179.956         183.281         179.236         179.116         192.075         192.263         192.451         195.755         199.059         193.029         193.202         193.39          193.578         193.759         193.894         192.559         194.703         194.568         194.433         194.563         194.692         194.822         193.916         199.192         195.539         197.684         196.931         198.462         190.43          196.274         197.806         198.729         197.542         197.41          198.333         198.217         197.902         198.916         198.799         198.709         197.486         198.529         199.16          199.112         197.94          199.014         199.355         199.347         198.19          199.333         199.383         199.402         199.421         199.44          199.308         199.133         199.043         198.953         199.284         201.289         198.545         198.387         198.602         200.71          200.608         200.506         199.895         200.253         200.8           200.713         200.299         200.938         200.724         200.465         200.583         200.576         200.761         200.754         200.61          201.311         200.41          200.78          201.01          201.819         200.779         201.588         201.472         201.381         202.021         201.93          201.838         201.732         202.475         202.369         202.262         202.159         202.056         201.953         202.676         202.56          202.444         202.329         203.138         203.873         203.768         203.663         203.558         203.915         203.456         203.405         203.762         203.714         204.047         203.619         203.952         203.837         186.635         203.607         204.412         204.527         204.642         204.918         205.076         205.242         205.408         205.554         205.709         205.554         205.399         205.244         206.328         206.189         200.74          207.024         206.885         207.793         207.663         207.533         207.404         207.275         204.536         207.019         207.917         207.719         207.521         207.324         208.707
201.842         202.002         202.162         202.322         202.967         203.16          200.199         203.724         204.006         201.553         200.554         200.99          176.842         194.226         177.489         177.812         194.226         178.773         190.18          174.796         182.088         177.357         177.089         180.852         178.683         178.415         179.386         179.249         179.113         179.222         179.185         179.147         178.864         179.072         179.051         179.272         179.01          179.23          179.35          179.47          179.59          175.962         175.842         191.932         192.12          192.307         192.563         192.736         192.909         193.082         193.27          193.457         193.725         195.065         193.903         193.768         193.633         193.79          193.646         194.784         194.914         200.605         192.981         195.358         198.344         198.382         197.372         198.511         198.292         198.073         197.941         197.809         198.608         198.476         198.359         198.243         198.126         198.941         199.572         197.627         198.67          199.301         199.253         199.204         199.546         199.498         199.491         198.333         199.476         198.162         198.188         199.419         199.58          199.275         199.185         199.095         199.005         197.644         199.507         200.854         199.848         200.694         200.434         200.332         200.387         200.284         200.845         200.461         200.672         200.586         200.914         200.478         200.424         200.752         200.744         200.737         200.729         200.783         200.774         200.385         201.177         199.731         202.043         200.632         200.73          199.902         202.281         201.514         201.422         202.007         201.901         202.704         201.689         202.491         202.388         203.26          202.182         203.053         202.938         202.822         203.648         205.518         189.645         203.322         203.217         193.491         205.048         204.997         205.326         206.112         206.064         205.179         194.403         206.177         206.062         205.947         205.577         203.829         203.944         204.059         204.305         204.463         67.9953         204.795         204.903         207.795         207.64          207.485         207.331         208.175         206.644         206.505         206.366         208.468         207.489         208.209         203.902         207.949         209.724         209.596         209.468         209.339         210.889         210.692         210.494         210.297
201.751         201.911         202.071         202.231         0               201.674         203.869         202.238         202.52          200.409         199.956         199.502         177.229         177.553         177.876         178.2           178.988         179.056         179.38          178.594         178.876         180.91          178.696         180.345         178.161         177.893         178.879         178.743         178.606         178.661         178.432         182.339         178.357         178.511         178.49          178.47          178.449         177.33          177.45          177.57          177.69          181.666         181.774         191.788         181.173         181.002         192.442         192.615         192.788         192.961         193.149         193.337         198.661         194.181         195.022         194.887         193.777         193.035         195.434         194.876         193.424         201.265         200.511         195.177         199.004         199.215         198.038         197.813         198.559         198.34          198.247         197.991         197.944         198.618         197.361         199.315         198.269         197.95          197.86          199.623         199.532         199.442         199.394         199.345         198.542         199.693         199.634         198.477         199.62          198.537         198.564         198.59          198.617         199.605         199.238         198.236         198.146         198.968         200.736         200.577         200.419         200.26          200.158         200.055         200.331         199.784         200.804         200.056         199.969         200.545         200.147         200.676         200.605         200.587         200.72          200.713         200.567         201.543         201.443         200.36          200.26          201.143         202.268         202.152         200.796         201.921         201.83          201.118         199.685         203.145         203.039         202.933         202.827         203.844         202.617         203.638         203.534         203.431         203.315         203.2           203.084         207.059         203.821         203.716         203.902         194.313         206.94          206.538         206.487         206.787         208.034         195.506         207.939         207.482         207.367         207.661         207.546         199.026         203.361         203.534         203.692         203.851         188.62          190.405         192.19          209.881         209.726         209.571         205.378         207.239         207.1           206.961         204.008         208.352         208.222         204.766         208.625         208.495         197.135         211.018         210.89          212.676         212.479         199.319         210.169         213.351
201.66          0               201.981         0               201.906         204.014         204.296         204.578         204.86          176.647         199.357         177.294         177.617         179.068         179.136         179.204         179.272         179.339         179.663         179.987         179.244         182.677         182.394         179.837         181.829         181.547         181.426         182.258         181.183         182.804         181.924         182.621         182.529         178.342         178.321         182.036         182.091         176.616         176.737         176.857         182.908         181.877         181.985         181.706         181.535         181.365         181.275         181.184         192.668         192.841         180.387         195.711         195.897         195.249         194.19          194.979         193.92          195.396         195.252         193.686         195.098         193.372         201.171         194.996         199.664         198.91          198.305         199.045         198.253         199.289         198.475         199.025         198.212         197.621         197.503         198.528         198.412         199.224         198.728         199.763         199.673         198.824         198.409         198.731         198.685         199.834         198.629         199.77          199.763         198.678         198.705         198.731         198.758         199.381         198.475         198.385         198.295         199.021         197.262         199.783         200.142         199.984         200.48          200.374         200.275         199.728         200.763         199.526         199.914         200.793         200.865         200.035         200.342         200.563         200.696         200.689         200.681         200.535         200.724         200.335         201.309         202.607         200.722         200.978         202.261         200.35          202.619         201.963         202.436         202.345         201.256         200.901         200.855         204.222         204.119         201.208         202.64          203.809         204.667         204.551         201.269         204.32          204.215         204.11          204.005         208.18          208.453         208.078         208.027         208.3           196.609         209.956         197.428         208.787         208.672         209.631         208.442         199.109         199.889         200.669         67.9953         67.9953         67.9953         192.1           67.9953         208.314         208.16          208.005         205.833         209.642         209.503         207.417         204.464         209.559         208.956         209.3           209.17          209.04          208.912         212.441         212.313         214.265         214.068         211.789         211.591         215.072
55.3464         0               0               201.933         201.48          201.026         200.573         200.119         199.666         199.213         198.759         177.682         178.005         178.329         182.546         182.327         179.946         179.623         181.736         181.584         181.431         179.895         182.737         182.635         182.624         181.025         182.372         180.782         181.631         181.509         182.152         181.326         183.128         181.876         181.496         181.551         181.605         181.659         181.552         181.445         184.5           182.088         182.178         182.269         184.688         181.727         180.532         184.72          182.239         181.044         180.874         180.703         193.133         193.32          196.389         199.457         193.922         194.066         194.354         194.928         191.835         194.64          194.727         194.815         194.204         194.292         195.339         197.96          192.457         196.737         198.533         198.276         198.02          197.763         197.646         197.528         197.411         198.233         198.143         198.052         197.961         198.596         198.55          197.147         198.457         198.782         196.803         198.763         198.829         198.819         196.694         198.872         196.283         198.713         198.506         198.533         199.554         199.073         200.183         200.025         199.076         199.708         200.311         200.216         199.394         200.117         200.031         200.329         200.264         200.463         200.841         200.132         200.301         200.679         200.731         200.247         200.716         200.709         200.7           200.257         200.186         200.746         200.788         200.251         200.874         200.575         201.603         201.456         201.309         201.162         201.485         201.07          201.393         201.347         201.029         201.437         201.483         201.165         201.065         184.512         200.866         201.563         202.605         203.648         196.352         197.394         196.545         196.456         195.611         197.712         196.08          195.254         195.664         196.073         199.051         198.615         200.291         199.192         199.972         200.752         0               67.9953         192.01          193.795         204.955         197.365         209.859         205.212         205.069         204.504         204.643         204.715         204.61          203.951         203.633         203.315         202.998         205.221         205.97          206.719         207.467         202.226         202.444         203.044         202.382         202.351
171.178         202.413         201.96          201.506         201.053         200.6           200.146         199.693         199.068         177.838         178.205         178.069         178.393         180.634         182.263         182.044         179.663         179.339         179.272         181.3           181.148         179.527         181.685         182.267         181.12          181.778         183.475         181.535         183.174         182.081         181.99          181.898         181.018         181.714         181.151         181.206         181.26          181.314         182.199         184.128         181.985         181.877         181.968         182.058         182.148         179.875         181.535         184.357         181.877         182.413         182.366         182.319         192.99          193.176         196.245         199.314         193.83          194.261         194.118         193.974         193.83          193.809         193.908         194.933         195.02          194.17          199.136         192.947         197.913         199.03          192.208         198.518         196.652         198.005         197.887         197.77          195.487         198.397         199.044         198.216         198.125         199.166         199.119         198.679         199.027         198.98          198.971         197.454         199.069         199.059         199.086         199.112         199.139         198.655         198.632         199.652         199.121         200.345         199.258         199.906         199.794         200.539         199.587         200.334         199.404         200.129         200.755         200.669         200.297         200.496         200.442         200.388         200.341         200.732         200.725         200.315         200.297         200.766         200.757         200.253         200.824         200.815         200.504         200.547         200.59          200.632         202.041         200.64          200.192         198.094         201.555         201.509         201.462         202.99          190.17          202.999         203.044         203.089         202.99          202.89          203.059         202.959         196.562         205.044         206.086         198.208         195.979         197.425         196.546         199.846         196.26          194.827         195.237         195.646         201.08          200.669         197.753         199.491         199.927         199.447         0               0               189.924         204.574         204.717         205.445         209.806         192.1           190.315         204.452         204.768         206.24          203.515         206.029         203.336         205.804         205.486         205.169         199.894         207.022         207.415         202.141         202.11          202.078         202.047         202.361
171.917         172.66          201.533         175.689         176.056         176.789         177.168         177.911         177.762         178.086         178.454         179.435         179.654         177.553         177.229         181.76          179.999         182.713         181.17          178.92          178.852         181.78          178.876         178.594         181.797         182.148         180.529         181.847         182.958         181.077         182.961         182.733         182.695         180.752         180.806         180.861         180.915         180.969         183.272         181.881         181.774         181.666         181.757         181.847         181.937         183.777         179.559         181.344         183.917         182.605         182.559         182.512         178.817         193.033         196.101         193.594         193.738         194.812         194.314         194.17          194.149         194.878         193.775         193.874         195.139         195.022         193.437         199.089         192.214         198.631         197.61          198.759         198.503         198.246         198.129         198.796         198.678         199.31          197.171         198.379         198.289         197.544         197.521         197.498         198.808         199.179         197.621         197.653         199.151         198.624         198.651         199.352         199.379         198.73          198.64          198.55          198.46          198.988         200.022         199.91          199.798         200.429         200.334         200.345         200.243         200.049         199.985         200.395         200.33          200.265         200.231         200.428         200.367         200.36          200.375         200.353         200.35          200.921         200.368         200.903         200.374         200.519         200.359         200.604         200.647         200.69          202.48          200.396         202.186         202.039         201.993         201.947         201.901         204.832         204.679         192.14          204.769         204.754         195.072         204.554         204.715         204.355         205.397         196.587         207.482         196.258         196.169         196.814         197.536         196.636         193.991         194.4           194.81          202.146         201.366         197.762         199.806         199.502         199.938         198.142         198.922         204.05          204.193         204.336         204.479         211.538         192.19          190.405         207.106         204.399         202.941         203.08          204.504         205.732         205.758         205.751         202.404         205.116         205.865         206.969         207.362         202.496         202.465         201.993         201.962         202.371
172.656         173.399         174.143         174.887         175.631         176.769         177.512         178.256         178.01          178.335         178.702         179.069         179.657         180.268         181.696         179.42          179.096         178.773         182.193         182.04          180.581         182.368         181.633         181.028         177.943         180.463         181.81          181.66          180.981         181.757         180.769         180.677         182.724         180.407         180.461         180.516         180.57          180.624         180.517         180.41          181.563         183.785         181.546         181.636         181.726         178.902         179.073         179.244         183.43          182.798         182.751         182.705         182.658         181.918         193.358         195.376         195.596         195.571         194.51          194.366         194.222         194.047         193.665         195.171         195.258         193.927         200.265         199.653         199.042         198.873         199.257         199.001         198.744         198.488         198.37          197.805         198.842         198.725         199.395         198.543         198.452         197.72          199.076         197.674         198.984         197.492         199.369         199.359         199.35          199.492         199.566         199.592         199.619         199.849         199.708         198.39          199.427         199.286         200.026         198.629         198.949         199.719         199.594         199.499         199.405         200.908         200.821         200.428         200.649         200.562         200.264         200.23          200.197         200.839         200.433         200.824         200.426         200.422         200.982         200.862         200.853         200.577         200.429         200.662         200.705         200.747         200.6           200.755         202.624         202.477         202.431         201.288         202.339         206.757         206.322         190.889         206.413         206.15          196.468         190.286         195.211         194.583         206.793         194.254         196.612         197.963         196.358         198.408         196.179         196.815         196.618         193.974         196.225         201.35          200.914         193.233         192.454         199.513         199.949         200.385         197.617         203.812         203.955         204.097         204.24          192.28          190.495         205.554         206.131         204.346         204.484         205.647         202.921         206.334         202.742         205.632         205.381         205.063         205.812         206.916         207.309         201.969         201.938         201.907         201.876         203.334
173.395         174.138         180.921         179.352         180.222         177.114         179.685         179.317         180.839         178.583         180.853         180.41          180.204         179.88          179.661         179.442         179.65          180.756         180.603         181.672         180.298         181.367         182.079         179.713         181.875         181.773         182.826         180.863         180.127         182.375         182.337         182.599         181.649         182.525         181.404         183.297         183.168         183.039         183.536         182.878         183.12          182.931         183.361         183.3           182.747         183.177         182.851         182.897         183.317         182.99          184.954         183.353         183.535         182.265         182.083         192.84          193.061         193.282         196.036         193.859         194.012         194.165         192.59          192.379         193.706         194.778         194.853         193.569         194.406         194.48          198.535         197.956         197.376         196.797         197.54          197.969         197.773         197.578         196.258         197.42          193.496         197.895         193.382         197.849         196.88          197.987         198.019         198.051         198.082         197.859         198.772         199.09          197.661         198.68          199.666         199.525         199.384         199.243         200.03          199.019         199.201         199.693         199.598         199.503         199.408         200.072         200.007         200.461         200.396         200.331         200.568         200.264         200.23          200.466         200.463         200.46          200.456         200.48          200.483         199.715         196.571         200.467         200.498         200.529         200.56          200.345         198.707         198.941         196.441         199.409         191.297         194.279         194.953         194.774         195.1           195.753         195.816         193.467         192.838         192.21          191.582         195.979         195.815         195.65          195.486         196.637         196.547         194.545         197.084         196.994         194.092         196.601         196.405         197.78          192.465         196.908         196.473         199.524         199.96          200.395         200.831         0               203.716         203.859         204.002         204.144         204.531         204.27          201.456         204.716         205.455         204.504         203.984         205.138         205.244         205.35          206.148         205.432         205.506         205.579         205.653         202.57          202.114         202.179         202.244         202.309
176.102         179.312         180.577         178.256         179.877         181.403         181.133         176.034         178.702         181.173         180.849         180.064         179.985         179.905         179.819         179.732         179.219         180.885         182.003         181.85          181.698         181.054         181.443         182.144         180.716         181.941         181.79          181.64          182.74          180.872         182.029         182.515         180.491         182.564         182.446         181.411         182.264         182.798         182.825         183.229         182.879         183.109         182.845         183.17          183.109         183.047         183.094         183.141         184.355         184.58          181.374         184.635         183.342         179.501         179.319         183.391         192.865         193.086         195.84          198.594         193.894         195.504         192.761         192.55          192.339         195.904         194.141         195.597         195.114         194.365         193.785         198.465         195.425         197.306         198.359         196.916         196.718         198.731         198.652         197.615         197.536         198.14          198.391         198.368         197.063         198.17          198.202         198.234         196.169         198.048         197.91          197.422         197.634         199.437         199.714         199.573         199.432         200.215         198.817         199.99          199.274         200.554         199.67          199.478         200.27          200.175         199.6           200.046         200.519         200.455         200.709         199.435         200.353         200.608         199.499         200.601         200.598         200.647         200.65          199.882         200.656         200.919         197.553         200.98          201.011         201.009         199.085         196.872         195.532         199.786         197.44          192.349         193.508         194.667         195.584         195.647         192.769         193.096         192.468         191.84          196.579         196.41          196.245         196.081         197.291         193.208         192.989         196.948         196.859         199.107         194.452         194.436         196.766         198.321         197.885         200.385         197.013         199.607         200.042         0               195.455         196.995         205.411         205.554         205.697         204.383         204.651         204.097         201.694         204.356         205.609         204.625         204.519         205.435         205.541         206.916         206.201         202.917         205.559         205.632         205.706         201.828         200.58          201.318         202.175         203.265
176.316         180.581         180.232         179.882         179.532         179.556         180.884         180.614         178.371         180.072         179.993         179.913         179.981         179.902         181.671         179.435         181.233         181.014         180.605         180.502         179.672         180.296         181.622         181.52          181.418         181.498         181.395         183.105         182.955         182.925         182.767         180.833         181.9           182.7           181.655         183.568         182.345         183.31          182.8           183.364         183.217         184.614         182.82          182.753         182.979         182.918         182.965         184.18          183.058         184.146         184.261         184.201         183.15          183.514         183.487         183.459         183.432         192.89          193.469         193.622         193.775         193.142         194.353         192.72          192.509         195.004         193.948         195.153         193.641         200.132         195.219         195.264         195.31          198.75          197.62          197.425         198.164         197.969         197.89          199.092         199.013         198.933         198.91          198.399         197.246         197.678         198.385         198.377         198.449         198.99          198.852         197.395         197.607         199.485         199.762         199.219         198.338         199.611         199.522         200.062         199.95          199.838         199.743         199.13          200.373         199.768         199.409         200.149         200.084         200.578         199.665         199.559         200.477         199.618         200.746         200.743         200.739         200.814         199.762         200.821         201.367         201.551         201.582         198.249         198.493         197.356         196.303         199.696         202.376         189.925         201.323         194.065         203.641         195.414         195.477         195.54          192.399         192.725         192.097         198.096         196.208         196.84          196.676         193.187         196.347         198.073         195.485         197.438         197.805         194.83          199.451         199.255         197.126         203.54          200.81          197.99          199.938         199.689         200.125         193.927         195.467         197.007         196.373         205.477         0               204.621         202.454         204.512         204.251         204.957         203.918         205.657         204.64          205.732         206.678         206.969         206.049         203.002         205.611         202.872         206.197         201.91          207.758         208.496         201.986         202.171
176.531         179.054         179.887         179.537         179.188         180.907         180.636         178.297         178.205         180.216         180.842         179.665         179.585         182.019         179.812         179.725         179.639         180.111         180.99          179.904         180.577         181.902         181.276         181.163         182.377         183.621         182.125         181.507         180.629         181.301         181.174         181.047         182.025         182.9           183.832         182.598         183.575         182.748         182.775         183.5           182.829         182.856         182.794         182.727         182.672         184.02          182.835         182.319         182.929         182.413         180.681         180.862         181.044         183.583         183.555         183.528         180.34          182.926         195.34          193.503         195.762         194.677         194.524         194.371         192.68          195.116         195.191         193.907         194.059         200.641         193.554         192.975         198.904         198.324         198.129         197.934         198.36          198.165         198.086         198.006         199.532         198.628         199.43          198.582         198.559         198.707         198.568         198.6           198.632         197.778         197.573         197.368         197.163         199.951         198.66          199.268         198.08          199.388         200.247         199.507         200.023         199.91          200.666         199.202         199.621         199.892         200.317         199.467         200.187         199.714         200.992         200.634         199.666         199.759         200.887         200.884         199.827         197.064         200.985         197.638         201.818         201.821         202.247         201.883         201.913         197.021         196.968         200.074         203.041         197.521         201.701         193.958         199.544         191.048         195.37          195.433         195.496         195.32          195.492         195.665         197.898         197.27          197.106         194.397         194.292         198.434         198.017         193.751         197.838         198.077         199.992         195.158         197.487         195.076         202.541         193.1           200.566         200.195         201.183         193.938         195.478         197.019         196.384         195.75          204.334         202.952         205.506         205.363         205.221         204.112         204.039         204.866         204.761         205.565         205.638         205.711         205.784         205.59          203.023         206.974         202.893         206.279         201.906         201.179         202.037         202.797
172.136         177.095         178.565         176.395         178.355         178.493         178.222         180.117         179.847         179.576         180.133         180.054         177.561         179.894         178.021         179.722         179.635         180.24          180.137         180.033         177.889         180.653         181.443         178.102         180.314         181.104         178.796         180.899         180.796         181.516         181.389         178.194         182.15          182.024         178.849         181.787         180.393         182.497         183.434         182.229         182.096         183.033         182.343         184.025         183.86          183.694         183.678         183.239         183.778         183.761         183.568         183.596         183.844         183.651         183.779         183.907         184.148         183.138         183.01          193.061         193.272         193.483         196.069         194.02          194.174         194.327         194.531         194.02          193.866         194.942         195.811         195.033         195.511         194.761         195.23          195.098         194.966         196.796         194.194         197.213         193.823         195.818         196.676         197.066         196.343         197.254         196.578         196.421         198.145         197.967         197.829         197.024         198.657         198.519         198.246         197.512         199.183         199.05          199.667         197.813         198.786         199.403         198.124         199.788         199.21          199.66          199.615         198.195         199.882         199.837         199.948         196.63          199.916         199.901         199.743         197.613         199.968         199.81          200.097         193.747         200.671         198.663         197.357         197.248         197.441         197.686         197.632         193.424         193.991         197.898         191.911         192.397         199.922         195.201         194.76          195.326         194.451         194.949         194.507         194.655         194.085         194.258         194.153         194.048         197.078         194.677         196.206         195.988         195.77          195.551         195.535         195.518         195.502         195.616         194.629         194.512         200.555         199.567         194.535         195.762         197.129         197.03          195.49          206.271         196.748         203.191         202.93          205.188         204.493         204.232         204.16          203.795         204.014         204.524         204.597         0               201.123         0               202.456         207.013         202.736         205.537         199.527         207.013         201.213         202.586
177.589         179.922         178.595         179.223         175.831         178.281         178.239         178.127         177.711         179.8           178.515         179.641         177.785         180.86          178.25          180.687         179.864         180.514         178.267         181.185         180.205         180.979         181.831         180.753         180.64          182.309         182.206         181.287         182             181.897         181.77          182.649         181.516         183.259         182.277         183.022         182.04          182.785         183.659         182.518         183.391         183.258         182.572         182.927         182.761         183.929         183.912         183.896         183.873         183.472         183.5           184.412         184.27          183.583         183.711         183.839         183.967         180.603         180.474         192.891         193.102         193.313         195.899         193.907         194.061         194.835         193.094         192.91          195.216         194.101         194.55          194.595         193.651         195.286         195.076         198.116         197.607         197.456         197.343         194.31          196.899         196.714         197.297         194.972         194.613         197.983         196.643         196.486         196.33          199.172         197.234         198.896         197.932         197.808         199.586         199.453         199.32          199.187         199.099         199.011         197.88          200.094         198.533         199.429         199.365         198.411         198.418         198.383         200.091         200.046         198.523         197.002         200.288         200.414         200.295         197.985         200.34          197.665         200.791         198.239         198.525         196.505         197.506         196.994         197.289         197.482         193.274         198.422         197.323         198.316         195.462         192.626         196.434         195.43          194.834         195.555         194.96          193.616         195.196         195.368         194.134         194.307         194.202         194.638         193.992         194.428         196.344         196.126         195.907         194.587         195.672         195.656         195.64          195.112         195.126         193.268         198.274         200.195         195.163         195.75          196.384         197.111         195.478         196.862         206.135         205.511         204.334         204.991         204.73          204.47          203.302         205.711         204.251         204.371         204.444         0               200.775         201.968         202.108         202.248         207.017         205.81          199.594         201.176         201.28          203.382
176.54          179.952         178.626         178.521         178.416         181.106         178.234         178.012         180.294         180.024         180.591         180.512         178.009         178.756         181.048         180.962         180.875         181.718         180.686         180.583         178.747         178.695         178.93          181.079         180.966         181.881         182.587         182.484         179.339         182.278         183.148         182.024         181.898         182.767         182.648         182.53          180.969         183.074         182.94          182.078         181.881         184.814         184.649         181.362         181.201         183.731         184.014         182.029         181.885         183.964         183.991         184.344         183.487         183.514         184.044         184.028         183.899         184.09          177.939         192.72          192.931         193.142         195.728         183.17          193.948         195.798         194.771         194.588         194.166         195.183         194.071         194.52          195.319         199.435         198.927         193.593         197.909         197.4           197.142         195.073         196.771         197.528         195.203         194.844         196.088         198.07          196.708         197.027         196.395         199.274         199.136         197.198         197.074         197.91          199.723         198.423         199.457         200.065         199.977         198.615         199.801         200.273         200.209         198.393         199.52          200.016         199.972         200.344         200.299         200.255         200.239         200.676         200.66          197.669         201.13          200.69          200.712         197.814         201.485         201.771         202.058         199.339         197.656         196.791         197.035         197.279         197.226         198.84          198.786         195.394         193.635         200.082         193.341         195.658         195.721         193.642         195.034         195.097         195.269         193.666         195.615         194.356         194.493         193.155         192.752         194.178         193.96          193.741         193.523         194.725         194.197         195.794         198.386         195.74          195.755         195.769         195.783         200.824         195.792         197.111         197.105         197.1           210.619         196.85          207.538         205.749         207.089         205.228         204.236         204.707         204.634         206.751         204.488         200.078         204.291         199.234         200.427         201.619         201.759         208.496         207.758         205.459         206.197         207.457         207.672         202.189
178.529         179.982         178.656         178.551         178.446         181.33          178.313         180.789         178.11          180.248         178.382         178.307         178.232         180.581         181.323         180.409         180.322         179.228         181.941         178.764         180.754         179.369         181.518         178.919         179.215         179.164         182.166         182.063         182.762         179.61          180.575         182.406         180.302         181.863         183.717         181.46          182.783         184.243         180.859         183.094         180.464         185.044         184.878         184.713         181.426         184.382         182.403         184.099         184.082         184.065         184.418         184.12          184.134         183.446         184.249         183.702         182.373         184.039         184.055         184.071         180.911         183.463         195.558         195.869         196.053         195.918         194.892         194.47          193.027         194.341         194.4           195.394         195.286         195.812         195.004         193.518         194.741         197.702         195.1           196.829         194.729         196.458         196.292         194.716         197.095         196.929         198             198.584         197.688         199.375         197.408         198.258         197.161         199.993         199.86          198.558         199.594         199.461         200.132         198.224         198.154         199.867         199.803         200.323         199.675         200.642         200.15          200.553         200.508         197.451         200.448         200.432         200.416         201.017         201.824         201.062         201.084         196.342         202.178         202.465         195.571         197.914         199.356         198.919         199.845         193.541         197.023         199.257         200.404         193.19          199.825         200.5           195.213         194.056         194.857         196.013         196.076         195.17          194.728         194.876         195.689         194.012         197.136         194.196         194.091         193.929         193.71          193.492         196.432         195.964         194.335         195.932         195.915         196.369         196.383         196.397         191.533         194.459         196.42          197.1           197.094         213.562         196.963         196.838         196.714         207.402         205.726         206.881         204.473         204.944         207.865         207.792         204.725         200.22          199.49          198.76          200.079         201.271         201.411         201.551         206.756         205.42          206.158         207.418         207.634         202.734
175.419         177.952         176.491         178.581         177.638         178.372         178.295         176.694         178.757         178.68          179.202         178.531         178.456         178.978         179.264         178.897         178.856         179.142         174.082         174.06          178.987         179.348         179.297         179.246         173.738         179.552         180.32          180.211         174.17          179.991         180.946         180.81          175.539         180.537         181.95          180.133         181.546         181.344         181.147         182.528         176.659         182.133         180.677         181.811         182.938         182.777         183.789         183.644         181.731         183.355         184.35          184.208         182.929         183.923         184.036         183.891         184.004         183.988         184.104         184.22          183.592         183.523         183.407         193.36          193.544         193.727         194.012         194.162         194.311         194.461         194.311         195.361         195.211         195.061         195.983         195.061         194.891         195.588         195.852         195.217         195.512         196.33          196.164         197.326         197.16          196.994         196.607         196.681         195.45          197.619         198.483         196.819         197.248         198.113         196.54          198.697         197.821         198.502         198.432         198.924         198.854         198.784         194.407         198.702         194.234         198.946         194.915         198.918         198.904         199.002         195.76          195.668         198.265         198.413         197.175         197.172         199.445         197.036         196.778         198.72          198.793         198.064         199.418         197.847         197.738         198.498         199.284         199.94          195.661         196.228         192.827         193.313         193.799         194.285         189.294         194.838         183.891         194.654         194.802         194.95          195.098         194.061         195.359         196.634         196.608         195.676         194.494         194.663         197.888         195             195.214         195.246         195.277         197.111         197.125         197.025         194.147         197.054         197.048         197.088         199.089         197.077         196.952         196.827         192.951         197.576         207.564         202.844         193.296         203.283         204.014         203.397         201.022         200.363         201.854         200.083         201.063         200.923         199.73          208.078         205.251         205.693         197.038         197.971         198.904         202.321
176.797         178.126         176.664         177.917         178.684         179.264         178.502         179.11          179.032         179.673         176.8           179.524         178.732         179.375         179.334         179.86          179.253         179.778         180.169         180.117         179.624         174.684         174.591         175.369         180.228         180.177         180.067         180.815         180.706         180.596         181.584         175.551         180.187         182.885         182.683         176.424         182.279         178.028         181.88          183.239         183.042         182.845         183.689         180.663         182.362         184.178         183.061         182.917         182.772         184.691         183.457         184.407         183.173         184.103         184.087         184.091         184.075         184.039         184.155         184.271         183.644         181.033         180.917         193.21          193.394         193.577         193.891         194.041         194.191         194.699         194.534         194.322         194.204         195.207         195.075         193.701         195.828         196.146         194.66          195.805         194.32          197.803         197.637         195.176         197.305         195.977         198.262         195.722         195.595         197.793         197.669         198.549         197.422         199.116         198.204         196.667         196.991         198.727         198.656         198.586         199.39          199.32          199.279         199.518         194.77          195.515         199.438         199.424         196.356         197.699         196.154         196.062         199.838         197.331         198.911         197.327         198.383         198.381         198.454         196.329         198.601         198.916         198.094         197.985         198.591         198.612         199.268         195.165         195.071         195.726         196.827         193.999         197.758         194.971         189.981         194.787         185.174         195.936         196.084         196.232         196.381         195.435         195.408         196.532         196.28          195.725         195.115         196.063         194.686         195.408         195.439         197.402         197.434         196.82          196.835         196.849         198.677         198.29          198.497         197.125         196.86          197.113         196.989         196.864         192.987         203.361         203.156         202.951         192.18          202.54          198.03          198.76          203.985         200.22          201.712         199.94          201.411         198.485         200.079         198.886         205.471         204.151         205.084         200.946         206.95          202.632
176.971         176.909         177.34          177.269         177.198         177.127         177.118         179.385         177.099         177.028         179.156         179.082         179.847         179.772         179.731         180.496         179.649         180.414         180.835         175.393         180.26          180.68          176.086         180.578         175.9           181.64          181.53          180.581         175.419         177.125         176.26          176.156         176.053         183.618         181.61          183.214         183.012         176.945         182.613         183.951         178.083         183.556         184.117         183.235         183.796         184.422         184.277         182.548         183.201         184.891         184.749         183.56          183.417         184.322         182.562         184.122         183.846         184.09          184.206         183.17          183.882         183.873         178.427         183.864         193.244         193.427         193.771         181.737         194.071         194.845         194.68          194.483         194.35          194.185         195.446         195.09          195.108         197.319         194.768         195.433         194.428         195.588         195.444         195.3           197.45          197.083         197.128         195.868         195.74          196.574         197.306         196.356         197.597         196.979         196.918         199.146         197.216         200.138         200.067         198.81          198.74          196.352         195.48          200.008         199.734         199.927         199.913         196.86          199.804         199.79          198.279         200.084         200.232         195.274         197.484         195.963         199.754         196.941         199.112         196.137         198.598         198.34          198.232         199.122         198.015         194.102         199.033         195.237         195.143         195.798         196.899         194.686         189.063         190.164         197.495         195.473         195.381         197.218         197.367         197.515         193.256         193.405         195.458         192.597         196.178         195.774         197.649         194.95          194.163         194.332         197.036         197.068         195.728         196.644         196.658         194.984         196.687         198.113         198.321         196.689         198.736         197.15          197.025         196.9           196.776         204.27          203.262         192.491         204.923         203.496         203.128         203.609         199.348         202.179         202.039         201.92          199.658         198.833         200.427         199.234         205.692         204.371         200.413         198.592         202.099         200.458
175.038         179.413         179.309         179.204         179.099         177.34          179.737         179.66          179.583         180.467         180.393         180.318         179.282         181.214         180.128         181.132         180.046         181.051         180.999         180.948         180.896         181.347         181.296         181.245         176.524         177.485         177.356         177.226         181.096         176.968         177.659         176.761         176.657         184.351         177.242         182.046         177.784         183.544         177.459         177.24          182.952         184.268         178.132         177.688         177.244         184.666         184.522         182.793         182.463         182.134         184.948         184.806         184.664         184.522         184.506         184.173         184.157         184.141         184.257         183.817         183.821         183.819         183.815         177.67          180.201         193.277         195.829         193.801         195.264         194.944         194.794         194.644         194.494         196.439         194.162         193.993         195.216         196.393         196.223         196.052         195.356         196.7           196.701         195.423         196.412         198.766         197.13          197.003         196.875         197.604         196.639         197.386         196.422         197.625         197.107         197.045         196.984         199.176         195.379         197.861         200.463         200.579         200.352         195.929         200.457         200.239         196.385         200.389         197.144         200.183         200.331         200.478         200.625         197.64          198.004         199.565         197.633         199.507         197.153         198.143         198.216         199.632         198.37          198.261         196.583         198.449         194.741         195.309         200.152         195.87          196.971         195.373         189.75          198.87          191.355         196.16          196.068         198.501         186.779         198.797         198.945         193.076         192.673         195.481         195.455         195.429         195.993         196.161         196.33          196.671         196.702         192.943         196.766         197.786         196.482         198.712         198.324         197.937         198.144         197.198         196.507         194.729         197.062         194.338         204.431         203.573         207.882         203.163         205.029         199.15          204.332         205.062         204.197         202.528         201.426         198.48          202.108         201.968         200.775         207.232         205.912         204.591         197.969         201.567         199.835         204.051
175.748         177.257         177.755         177.115         177.613         177.542         177.606         175.479         177.514         177.579         177.626         172.784         177.72          177.391         177.589         173.547         176.398         176.597         171.2           171.095         176.532         176.683         176.704         176.726         176.926         177.055         177.148         177.242         177.469         177.572         177.702         177.831         177.88          177.986         178.09          177.974         178.192         178.411         178.518         178.624         178.843         179.287         182.393         181.949         181.505         181.062         183.366         183.037         182.708         182.378         182.192         181.546         181.818         183.125         182.961         184.112         183.948         183.783         183.788         183.792         183.761         183.765         183.784         183.802         183.821         183.691         193.324         193.489         193.653         193.818         194.972         194.807         193.324         194.477         194.308         194.139         193.969         195.155         194.985         196.176         194.644         195.836         195.078         194.937         196.557         196.413         196.286         196.158         197.049         196.922         195.047         196.705         196.596         197.357         193.34          197.234         197.172         197.604         195.306         196.157         195.035         196.639         196.552         195.937         194.484         196.986         197.758         196.765         195.312         197.427         197.335         195.955         197.151         197.795         197.792         197.79          196.518         197.804         196.476         197.951         198.312         197.511         198.166         197.021         198.827         198.563         197.647         194.631         195.286         195.942         188.235         195.97          190.437         191.538         190.437         189.336         188.062         189.524         189.021         174.63          195.348         195.374         195.557         195.53          195.295         195.478         196.98          196.766         196.551         196.337         196.115         192.453         196.432         196.21          195.822         194.414         195.477         197.76          197.968         198.175         181.616         196.929         196.722         201.628         201.833         202.039         201.312         201.628         203.211         202.859         204.103         203.078         204.303         200.933         194.576         201.635         199.179         199.53          196.434         207.453         206.132         204.812         198.28          206.678         200.146         201.079
175.945         177.454         177.382         177.311         177.927         172.844         178.154         177.838         177.828         173.225         177.811         173.863         178.268         173.464         178.15          171.165         178.547         177.281         177.438         177.416         171.764         176.016         176.038         176.172         176.302         176.431         176.524         176.617         176.864         176.968         177.097         177.226         177.242         177.349         177.452         177.24          177.459         177.678         177.784         177.891         178.132         183.759         183.316         179.147         174.869         184.418         181.656         178.379         183.43          183.101         182.914         181.886         182.541         184.65          184.485         183.136         182.972         183.992         183.996         182.026         184.005         183.819         183.838         183.856         183.875         181.182         188.455         181.145         190.442         195.429         197.7           196.135         194.935         194.688         195.859         194.349         194.18          196.733         193.629         195.011         196.222         196.052         197.066         195.763         193.899         197.705         196.505         196.378         196.251         195.007         197.087         195.635         198.162         198.054         192.32          192.156         191.993         195.892         193.308         198.68          195.252         195.117         197.411         196.683         194.701         197.151         197.041         196.931         195.478         196.308         197.495         196.899         198.042         197.95          197.958         197.946         197.943         197.137         196.623         198.098         198.171         197.43          199.544         196.904         196.641         198.754         197.838         198.447         194.319         194.929         197.187         188.973         199.389         190.851         189.75          188.649         186.779         188.242         187.738         195.65          195.676         195.846         195.726         193.918         195.674         193.636         193.761         193.887         197.155         196.94          193.025         192.943         192.861         196.7           193.842         200.475         195.537         184.18          183.972         183.764         183.556         196.893         196.685         202.744         201.803         204.017         201.89          203.259         203.054         202.929         203.33          199.548         203.137         200.511         204.901         205.914         199.418         197.853         198.449         207.832         206.512         202.153         198.473         207.058         198.978         200.783
177.223         177.65          177.579         176.172         176.218         175.657         178.161         178.693         176.331         173.786         173.846         178.769         173.965         171.205         178.711         177.568         179.108         172.596         172.478         178.107         178.086         175.35          175.371         175.393         175.677         175.807         175.9           175.993         176.26          176.363         176.492         176.622         176.605         176.711         176.815         176.918         176.726         176.945         177.051         176.976         177.42          184.683         184.239         179.895         179.452         185.141         174.994         179.101         181.92          183.824         184.365         183.45          176.333         184.858         183.641         183.476         180.198         184.2           184.204         184.209         183.868         183.873         181.719         181.737         190.436         187.483         188.476         189.47          186.521         199.476         196.875         196.345         195.063         193.215         194.729         194.559         194.159         195.548         196.779         193.675         196.438         194.538         197.285         195.979         194.116         195.574         196.725         196.598         196.47          195.281         195.595         195.908         196.222         198.75          198.688         198.915         192.689         198.792         195.741         195.606         193.631         197.664         196.407         197.49          196.13          198.188         196.816         195.759         197.857         197.747         196.371         197.563         196.179         198.106         196.851         198.103         198.099         198.613         196.769         198.305         196.461         197.385         197.394         196.823         198.021         198.945         198.028         198.638         194.464         196.231         195.666         198.433         196.852         190.164         189.063         190.819         178.582         186.959         186.456         195.978         196.004         194.465         192.961         192.819         196.031         196.005         192.337         192.463         194.276         193.597         197.095         192.551         193.352         193.27          196.803         195.394         202.028         199.147         185.912         199.563         185.496         196.856         196.648         203.86          201.715         202.152         201.426         203.249         203.191         202.839         203.32          203.058         203.397         203.466         200.439         200.79          199.658         210.853         196.912         208.212         206.892         202.533         203.28          199.6           204.774         201.466
177.908         177.846         178.698         178.627         177.633         178.484         174.165         178.466         178.457         174.839         174.899         178.979         175.018         177.855         172.211         178.252         172.855         178.841         173.162         178.798         178.584         174.446         174.461         174.476         175.053         175.182         175.276         175.551         175.655         175.758         175.888         175.861         175.967         176.073         175.555         175.774         72.6763         72.6763         176.318         177.717         176.708         181.531         181.087         184.718         180.2           183.831         185.534         183.172         182.843         178.765         184.705         182.566         183.986         184.145         184.902         184.737         180.538         182.742         184.413         182.442         183.922         183.927         180.76          183.964         183.982         187.504         188.498         184.6           186.165         199.686         198.121         195.438         195.273         196.422         194.939         194.77          194.601         194.173         195.206         196.825         195.234         196.484         196.34          196.196         197.216         197.072         195.241         196.817         195.628         197.743         197.634         199.664         197.416         193.876         195.123         193.549         199.448         196.094         195.959         199.869         197.05          195.552         195.413         195.275         195.136         196.157         196.041         195.925         197.152         196.628         197.306         196.435         198.353         198.261         197.006         198.257         196.984         198.245         196.916         196.762         198.069         197.576         199.925         197.593         197.941         193.754         193.39          198.829         201.102         195.218         197.477         196.404         192.761         192.498         191.905         191.312         179.414         182.137         185.174         195.715         195.857         194.728         196.346         193.198         194.303         192.815         196.053         194.414         195.624         194.087         197.585         193.154         193.072         197.68          184.873         185.935         186.998         188.06          187.852         187.644         187.436         196.819         196.611         201.355         191.569         201.755         201.483         203.239         201.594         202.829         198.222         203.792         203.117         199.666         200.017         205.069         199.897         200.248         198.927         195.972         204.093         202.913         203.66          207.817         205.153         203.23
176.035         176.472         176.518         176.565         176.611         176.286         172.553         176.735         175.162         175.387         173.134         173.538         173.942         175.147         169.774         169.811         173.539         173.86          173.963         173.949         169.581         173.919         173.934         173.949         173.963         72.6243         81.1729         81.1858         81.1988         72.6405         163.113         163.598         0               0               168.985         169.161         169.337         72.6763         72.6763         175.758         72.6763         176.295         178.175         160.527         175.489         177.369         177.638         177.907         178.918         179.488         180.017         180.547         181.47          181.766         183.839         183.543         180.878         182.95          182.8           182.65          182.5           183.551         182.557         181.563         188.519         187.525         187.261         183.695         187.639         187.374         187.336         193.269         193.452         193.636         195.201         194.068         194.219         194.369         192.072         194.068         195.121         194.971         194.83          194.689         194.548         195.534         195.461         195.975         195.314         195.828         193.63          193.944         194.258         194.572         195.717         192.898         195.39          195.226         195.091         196.04          194.819         195.769         195.631         196.6           195.354         196.323         196.207         196.091         195.975         196.787         196.691         196.595         196.498         197.173         197.162         197.151         197.139         197.217         197.063         195.502         196.754         197.834         197.775         197.784         197.792         197.8           198.41          199.019         190.599         195.363         195.956         196.549         193.832         192.991         192.398         191.805         180.246         182.969         193.435         193.577         193.718         193.859         194.85          193.577         194.567         194.425         194.567         193.758         193.84          193.922         193.796         193.67          193.544         194.25          194.332         189.584         189.792         190             189.792         189.584         180.753         190.832         193.395         200.83          201.539         201.811         201.539         203.443         202.463         202.899         203.18          202.062         202.553         202.622         203.278         203.619         205.66          198.572         204.568         205.653         204.473         203.293         207.171         198.811         205.948         200.305
175.071         174.428         176.81          176.857         176.903         176.783         177.008         177.233         175.494         173.062         175.779         175.839         170.009         172.965         173.287         176.467         170.524         174.505         174.491         171.36          174.208         173.228         173.243         73.7046         73.7086         71.5359         80.1015         71.5278         80.1274         162.939         73.699          163.909         164.395         168.37          168.546         165.851         168.898         169.074         174.741         175.01          175.278         180.622         180.354         180.085         179.816         176.446         176.715         177.626         178.195         178.765         179.295         179.824         180.354         184.549         182.14          183.957         183.661         183.365         183.215         183.065         182.915         182.492         191.005         187.588         188.498         183.22          187.617         188.505         188.921         185.763         185.725         177.918         193.242         193.425         194.99          193.872         194.022         195.98          194.502         195.679         192.303         196.87          195.238         195.097         194.956         196.307         196.233         189.758         196.086         193.487         193.801         197.118         197.432         193.377         193.223         194.416         195.57          196.489         195.271         195.136         195             195.946         196.922         196.783         196.645         197.437         197.321         196.274         197.089         197.727         196.876         196.219         196.683         197.341         197.33          197.319         197.308         198.49          198.336         198.182         195.386         197.563         198.641         197.89          197.899         198.667         199.276         191.556         194.92          195.529         196.122         196.715         191.905         193.354         192.761         192.168         178.607         181.33          178.825         193.198         193.339         195.143         195.001         195.715         195.574         194.162         194.303         193.154         194.586         193.318         196.947         193.067         192.941         193.76          193.842         187.644         187.852         190.814         190.606         190.398         181.568         191.96          200.939         200.851         201.483         204.075         203.094         202.823         203.26          202.988         203.135         202.151         203.195         202.576         203.282         202.903         203.966         197.855         203.852         197.656         205.202         204.022         197.436         205.93          205.319         205.771
177.118         177.055         174.972         177.188         177.235         177.281         177.506         177.731         173.335         176.051         176.111         174.202         176.231         171.089         176.821         177.143         171.201         175.033         174.629         175.003         174.988         172.538         172.552         172.623         172.502         79.1546         79.0301         79.043          70.4354         163.25          163.735         164.221         164.706         165.192         165.677         168.282         166.648         168.634         169.12          169.605         174.531         182.801         164.446         164.397         181.995         175.523         175.792         176.061         177.473         178.042         178.572         179.101         180.79          183.105         182.809         182.513         184.076         183.78          194.774         181.733         181.583         189.903         180.439         187.566         190.034         187.483         183.992         187.558         188.049         187.255         186.84          186.424         193.031         193.215         194.78          193.675         198.598         192.666         194.786         196.087         194.485         195.787         195.646         195.505         195.364         197.447         197.006         196.933         196.859         197.153         197.467         197.781         198.095         193.548         196.078         194.451         195.751         195.587         195.452         196.395         194.844         197.244         195.985         194.441         195.708         197.622         197.506         196.458         194.88          197.157         197.061         195.452         196.868         197.51          197.499         197.488         197.477         198.657         198.375         195.799         197.865         199.499         199.508         199.516         199.525         192.603         200.142         192.422         195.087         195.696         196.289         194.231         194.165         194.702         194.769         194.835         184.82          184.572         177.186         192.819         192.961         195.294         195.153         195.011         194.87          193.899         194.04          192.551         194.323         192.715         196.457         195.394         192.337         193.27          193.352         182.572         185.912         185.113         192.891         183.292         191.265         191.434         200.882         193.255         201.426         204.164         203.183         202.911         203.348         202.368         202.304         202.392         202.462         201.503         201.845         203.578         205.569         197.139         203.135         203.401         203.667         206.524         205.913         197.554         206.992         204.079
174.966         177.347         175.264         173.291         177.487         173.796         178.004         175.934         173.972         173.726         174.13          176.503         174.938         177.176         171.803         177.819         178.141         175.035         170.921         171.042         174.991         172.338         172.217         172.096         171.975         77.9457         77.9587         78.0921         78.1051         163.561         164.047         164.532         165.018         165.503         165.988         167.843         168.019         168.195         168.681         168.889         168.938         182.171         166.625         166.403         181.365         167.265         167.314         175.138         168.184         177.32          178.715         171.005         179.816         185.379         182.529         183.182         182.886         184.195         179.253         183.895         180.525         180.374         179.381         188.931         188.455         183.933         188.329         187.537         188.878         186.602         186.187         185.772         185.357         193.004         182.365         195.877         195.903         192.95          195.07          196.495         194.769         196.194         198.275         195.913         195.772         198.109         198.036         197.705         197.632         192.515         192.337         192.159         191.981         196.422         194.921         196.095         194.594         196.844         196.708         194.046         195.022         196.301         196.162         196.024         195.885         197.807         196.757         196.091         197.459         195.862         197.246         197.15          197.775         197.678         197.696         197.685         197.645         198.696         198.432         198.168         197.904         197.64          197.959         191.797         192.633         200.399         193.379         193.289         195.253         195.862         196.455         190.327         190.919         194.832         194.899         194.965         185.682         185.434         183.268         179.966         182.094         195.446         195.304         195.163         195.021         194.762         196.89          199.019         194.06          192.111         195.967         0               193.842         192.78          192.861         183.746         184.657         185.928         185.017         184.107         191.377         190.909         200.623         192.73          201.369         204.252         203.271         203.708         202.728         202.208         202.392         202.328         203.372         202.485         201.128         204.51          203.875         202.154         202.419         207.841         202.95          205.481         196.178         204.672         197.672         203.45
