56.393          65.2364         56.3046         56.4372         56.3341         65.4139         56.3022         56.3075         56.3128         65.4334         56.2201         56.2355         56.251          58.1981         56.2661         69.0015         56.2208         61.0067         52.184          56.1901         56.1963         58.2024         62.828          69.3435         101.705         97.7086         97.7127         101.717         101.688         105.17          114.529         112.889         80.1994         75.5431         83.6278         80.7855         79.8183         59.9034         51.9237         51.944          55.9642         56.9845         55.8426         55.8629         55.8832         55.8284         54.8362         51.9066         55.8519         55.6359         54.6667         55.9445         55.7284         55.7593         84.8375         51.821          0               -48.4188        176.102         176.35          177.675         179.846         178.095         182.343         172.891         66.2494         169.289         176.141         167.823         67.3571         68.384          62.2778         163.957         0               60.2153         -4              0               64.2063         1               62.281          0               63.2453         1               -4              0               147.44          110.742         81.0444         55.3464         178.796         179.468         -30.7476        174.138         175.701         175.352         184.222         177.114         175.602         180.11          176.839         178.583         184.148         176.529         184.204         179.88          177.413         179.897         175.223         180.756         183.621         176.451         181.414         181.367         179.079         179.713         176.548         181.773         185.623         180.676         176.76          182.375         180.337         178.776         178.562         182.525         177.404         177.286         177.167         183.039         180.066         186.093         180.268         182.931         180.969         186.803         182.747         183.177         178.851         180.178         182.161         182.99          184.954         182.902         180.614         182.265         170.611         180.756         200.036         193.282         190.828         166.823         195.619         194.165         188.59          189.379         195.706         194.778         194.866         195.927         192.002         194.48          198.535         192.322         192.742         196.797         194.164         189.707         192.211         197.578         191.007         195.053         193.496         197.895         194.382         195.849         196.826         197.987         198.763         196.431         193.827         197.859         203.296         198.634         199.244         198.68          200.666
55.154          55.1688         55.1835         55.3086         55.157          55.1623         64.2711         55.173          51.0831         56.0986         55.2092         55.1295         63.8594         53.0987         63.0219         56.1676         55.0572         52.1275         62.0162         55.0756         64.9981         53.0879         64.6692         59.7462         59.8231         97.8751         98.7899         68.054          103.92          107.279         112.639         112.999         74.4716         77.6403         77.714          83.5824         56.8156         56.8359         63.513          51.8764         50.8967         51.6965         54.7168         50.7371         56.7573         56.7651         54.8162         53.824          63.9923         51.8627         54.8935         50.9244         65.2137         50.5971         51.6279         52.6588         168.74          -63.4595        -105.878        -151.297        167.59          167.49          184.202         179.398         62.1392         60.1661         60.1931         59.22           64.2469         171.319         64.1471         170.251         62.2009         59.0947         -4              166.741         -2              1               65.1646         -3              140.857         59.1303         -4              -4              140.41          117.712         83.0137         140.889         180.145         177.437         -33.7783        170.143         169.399         168.656         170.912         167.168         175.804         181.437         175.069         172.667         178.321         174.01          176.161         178.082         177.761         178.112         179.026         175.646         177.53          184.427         183.646         177.698         177.545         178.004         178.144         182.716         177.603         181.18          184.89          177.49          176.872         178.552         178.515         182.491         184.648         178.446         184.392         180.293         187.644         177.957         179.229         180.243         187.293         178.943         182.17          186.722         183.611         186.094         182.049         182.032         187.58          183.374         177.555         184.737         205.834         202.08          172.275         173.403         195.817         191.596         166.359         194.155         190.972         197.183         196.55          196.876         191.891         195.141         192.04          191.114         196.623         196.044         196.465         195.188         193.306         201.111         194.164         194.718         193.774         193.694         197.771         200.536         195.26          200.239         195.368         193.183         193.704         194.202         197.768         194.266         200.95          199.627         195.131         199.536         199.398         202.714
54.0329         54.0476         54.1653         54.18           63.1529         63.1447         54.0331         54.0384         66.7114         62.7554         62.7994         62.8434         55.9918         53.9994         54.0069         61.8028         61.9198         61.808          50.9549         62.8926         58.3565         53.9733         53.9794         58.5873         79.5911         100.896         102.046         102.05          105.908         107.389         110.749         78.495          76.6835         80.7788         81.5843         81.6796         64.5216         51.7684         60.4455         78.4432         50.5504         54.5707         49.591          52.6112         65.6382         51.6393         61.8654         64.979          50.8118         54.8426         49.8735         52.9043         143.594         99.1748         58.2325         13.3373         171.875         -72.5002        172.371         65.5007         179.944         176.14          177.336         184.532         166.814         170.081         171.267         180.066         170.882         61.0163         171.793         65.0702         -2              -2              61.0054         58.0211         60.965          61.0482         0               1               2               -2              62.02           58.0245         0               112.509         0               1               -8.11094        -37.8089        -64.5069        -97.2049        176.66          173.917         176.873         173.429         177.155         172.056         171.689         179.322         176.072         180.762         179.438         181.114         175.902         184.241         177.452         180.233         176.708         184.861         176.502         184.399         179.222         184.183         177.52          180.418         176.77          182.255         176.564         184.461         179.086         185.154         178.85          182.706         186.7           181.646         179.536         178.418         186.773         185.092         182.827         179.217         179.164         181.102         179.041         184.979         179.419         181.465         184.011         180.903         177.846         177.027         180.209         187.316         178.572         174.817         201.862         170.309         179.067         174.481         194.911         166.308         189.142         199.463         198.2           190.509         196.102         189.948         194.1           199.227         199.132         195.553         194.974         191.31          198.75          195.931         194.36          202.164         195.801         193.89          192.894         200.013         195.779         202.91          202.399         202.864         200.353         201.71          194.377         198.449         201.805         198.376         199.171         198.19          195.761         199.305
52.9118         61.8731         52.9413         52.956          62.0183         62.0101         52.8985         52.9038         48.871          49.8864         57.94           52.9555         50.8924         57.6749         59.6892         48.9151         57.8052         49.9288         52.9349         59.6905         50.8526         57.846          48.8649         57.4285         102.001         103.005         103.212         58.7363         97.1394         106.499         109.859         117.218         79.7134         82.839          78.9972         77.7768         49.6806         48.7008         48.7211         54.7414         62.3019         50.4449         52.4651         63.1877         55.7604         50.5135         48.5213         52.7839         48.7917         50.8225         52.8534         61.6182         54.2417         48.2726         41.7153         51.3343         -49.1222        -86.5409        -137.96         -177.378        162.964         169.212         179.499         173.255         59.9727         56.9997         62.0266         175.145         167.745         60.9125         56.9395         170.644         -2              57.009          63.0246         -4              4               60.9433         1               -3              -2              88.12           88.1246         86.1291         4               -4              1               -5.14163        -37.8396        -63.5376        -97.2356        168.665         175.921         169.178         175.566         180.823         177.079         171.712         181.365         175.977         183.824         174.514         175.19          179.865         186.019         175.65          179.725         183.362         178.513         178.36          176.838         176.685         185.902         184.361         181.163         183.597         178.275         178.125         179.32          184.824         179.406         185.279         181.047         178.907         182.961         184.717         180.703         186.514         179.362         187.46          185.094         178.829         182.058         184.893         188.154         178.85          179.824         178.273         181.319         179.366         178.413         179.915         181.862         181.044         181.09          174.471         177.346         184.474         201.658         200.668         174.43          194.898         189.313         191.102         192.891         190.68          199.116         194.91          193.984         196.059         201.641         197.062         192.975         198.207         194.946         196.75          197.234         195.36          196.32          194.086         198.006         199.927         195.453         195.43          196.789         197.384         201.071         200.892         194.35          196.172         198.778         201.856         196.718         203.006         203.951         202.346
60.9073         60.7519         60.9517         60.9738         60.8185         60.8756         69.6857         69.6981         60.8511         64.8951         60.5873         69.5896         60.6752         58.5756         60.5898         71.6757         60.6183         60.6816         61.6726         64.6635         60.6545         58.7314         60.8084         61.2697         60.3466         86.2419         61.5005         64.5775         101.249         100.314         110.968         120.328         79.8106         74.9622         130.94          153.115         79.3258         75.447          43.1796         83.6894         60.2343         58.5007         60.1583         65.2188         60.3865         62.5914         67.8204         57.7273         59.9321         56.8208         63.7095         66.707          60.3774         72.8277         60.4847         63.1093         60.1629         63.2165         178.64          72.7775         177.137         66.3332         176.633         167.896         172.144         59.9164         67.6974         63.9703         59.9972         67.6694         64.7073         64.078          59.8895         59.9052         65.749          63.9365         59.8269         65.6961         64.6692         59.7695         59.781          59.7492         55.7537         55.7583         59.7628         58.7674         179.377         59.7764         174.261         176.386         175.024         173.136         177.095         174.706         174.601         180.046         178.493         176.388         174.096         182.019         179.576         174.286         176.054         174.137         179.894         176.021         180.722         181.326         180.24          179.137         176.033         173.889         180.653         177.443         179.33          181.314         181.104         184.002         176.899         184.796         181.516         177.389         186.277         179.15          182.024         177.905         184.787         178.616         182.497         179.434         186.229         179.096         183.033         184.343         180.025         178.537         183.694         183.811         183.794         179.426         183.761         184.622         180.596         187.623         183.651         183.779         183.907         183.148         183.138         197.242         169.331         174.38          193.483         201.781         194.23          167.91          194.327         190.944         190.347         190.577         194.942         193.83          194.033         192.531         194.761         194.322         192.098         197.966         196.796         194.084         193.285         192.573         195.818         202.331         194.066         192.741         197.254         198.076         192.897         192.719         197.967         201.829         193.024         201.553         198.519         193.61
68.6714         59.624          59.6462         59.8574         59.7763         68.5659         59.76           68.5907         68.603          74.4053         68.4382         59.5128         62.4464         68.5219         58.4748         63.4891         66.3936         64.3938         68.394          55.5578         56.88           65.387          61.0339         64.4346         82.3429         85.2894         88.3791         68.53           104.368         24.8423         107.451         114.447         121.593         110.419         92.2443         85.9518         55.896          39.7218         28.5476         55.1568         64.7107         57.443          56.4049         62.3669         71.7902         56.4424         63.556          55.6696         66.4937         55.5977         54.4864         60.3751         60.8599         63.382          56.4356         55.4893         62.0745         173.527         63.1817         63.2354         64.2318         64.2795         69.3272         177.016         64.6485         54.8332         57.8601         71.3712         66.5798         56.9409         58.9678         67.6098         69.5032         54.8014         56.817          69.5468         58.6202         55.6316         65.5826         66.5841         70.5855         57.6706         31.3829         30.3875         177.821         30.3965         178.117         27.4056         175.187         182.682         168.284         169.575         174.7           174.491         172.181         171.831         182.281         174.239         181.127         176.07          176.442         184.362         182.44          176.203         176.86          174.25          183.951         175.864         176.514         184.411         181.215         177.421         176.979         183.866         176.753         181.605         177.492         185.206         177.287         177.059         185.897         183.831         177.643         181.516         177.287         186.277         176.883         178.04          179.793         179.659         182.853         178.384         177.459         178.572         177.137         183.25          186.929         180.912         185.896         182.879         180.696         182.5           180.767         183.625         186.583         180.542         180.67          182.967         202.318         202.732         171.821         176.937         191.973         172.502         170.951         165.4           191.277         193.651         190.91          197.016         198.101         198.55          198.595         197.641         190.686         194.155         191.023         192.16          198.098         193.343         198.587         191.125         201.755         200.396         196.972         195.613         200.799         200.589         197.962         194.33          201.302         199.916         194.896         192.987         195.719         200.487
67.5434         58.6965         58.5182         58.7409         58.5626         67.4585         67.4709         67.4832         66.2539         63.3064         58.3504         58.3944         55.3314         57.3456         59.3599         67.2903         66.308          56.4702         60.4611         66.2885         53.7211         59.7981         64.252          63.2758         65.2996         64.3235         89.4982         66.3711         4.44483         102.552         108.571         80.2446         101.961         81.2084         74.6082         151.67          43.264          22.0898         79.8145         -12.2586        58.0032         64.9478         65.9677         65.9876         59.0316         57.3848         60.4984         57.3724         53.486          59.6133         54.502          54.3907         61.2793         62.333          56.8788         59.4402         53.986          62.0397         60.0933         54.1469         66.178          62.2257         179.902         66.7662         53.7231         56.75           66.5309         53.8038         55.5742         63.5029         66.5093         65.506          53.6819         56.6976         66.5414         53.6014         55.617          64.4662         62.4677         65.4608         -0.997002       58.5557         67.4735         53.5647         5.02117         -0.974285       175.255         5.0348          176.626         168.431         167.723         170.014         178.952         175.277         175.253         179.617         178.311         177.234         178.565         178.294         179.024         176.591         179.669         175.785         174.756         182.479         178.18          181.634         176.789         182.615         179.49          177.479         180.981         182.93          177.079         183.993         178.69          182.778         175.448         182.339         181.229         183.092         179.021         183.898         178.767         175.592         175.39          182.188         176.768         181.884         178.806         186.616         187.814         179.317         180.64          178.479         184.318         182.014         180.119         187.98          185.964         187.432         180.868         181.487         184.201         181.329         180.457         180.899         206.808         205.222         178.311         179.427         199.463         195.252         191.049         195.838         191.798         192.644         190.06          190.166         195.429         193.071         194.52          195.361         192.211         199.927         191.948         199.909         193.328         191.798         196.073         194.134         198.562         194.42          193.844         190.485         199.07          194.676         200.027         197.395         202.404         198.136         196.998         201.074         199.91          194.589
57.3459         57.3681         57.3903         57.6244         57.5615         66.3511         57.5452         66.3758         54.5289         63.5728         66.2014         57.276          59.3199         68.1399         54.2449         58.3627         65.1822         59.3645         53.3554         65.1828         69.0455         58.6393         68.0931         61.5682         65.1408         52.9471         88.6173         94.6354         75.6585         77.7798         109.69          66.7476         82.2104         76.3316         48.9804         38.8062         53.0397         6.45781         -13.7164        54.9256         56.8876         62.8322         54.8115         60.7734         54.8085         53.3271         52.0357         57.1493         53.6756         54.5643         55.4529         57.3416         55.6831         53.7367         53.3376         65.5909         52.8976         52.9512         59.0048         56.0585         66.1243         66.172          179.037         179.285         60.6398         55.6668         59.6937         57.7206         63.3831         52.7745         56.5242         52.5512         60.5781         55.5938         61.3224         54.6251         63.3515         65.3513         56.5351         52.5465         56.4362         -28.3633        61.3586         65.3601         176.324         177.509         -29.3406        170.287         174.579         177.253         170.162         166.454         178.451         172.102         171.752         174.402         177.341         176.264         176.789         181.772         176.9           174.973         175.898         176.009         178.409         177.323         180.949         184.15          183.228         176.176         175.764         184.754         179.631         177.518         180.919         184.292         183.164         176.055         180.945         177.72          176.61          184.575         176.438         179.265         187.139         177.661         176.762         183.48          179.056         184.859         180.303         179.106         184.044         177.747         185.87          183.211         183.832         185.688         180.099         179.114         186.336         182.418         187.12          186.828         180.265         180.117         185.245         178.373         210.298         183.915         207.126         199.54          181.033         178.482         198.68          198.32          197.075         194.892         193.21          196.027         196.354         190.4           198.445         195.49          197.136         195.027         201.72          197.741         194.456         193.947         190.915         191.189         199.434         195.075         193.716         196.357         199.449         194.763         194.584         192.914         201.532         193.408         201.952         193.814         194.823         194.69
65.3732         65.2982         65.3946         65.4053         65.3303         65.2436         73.7712         65.2684         65.2808         74.1948         65.083          74.1537         65.1489         66.1666         70.4708         81.5441         65.0781         77.6198         69.5943         71.5967         65.0773         60.9105         63.9343         73.62           64.982          77.6457         89.7365         72.6596         100.773         104.791         104.357         61.5252         84.7003         99.0556         31.3484         151.225         0               64.6371         -30.3484        -50.5225        64.6967         63.5576         61.5775         75.0458         64.6172         64.5654         69.1514         73.3259         64.8244         63.8872         61.9499         62.0126         64.5736         73.0324         71.9916         74.9508         64.5167         72.9901         62.4203         60.4363         64.4524         71.4535         71.2934         71.6121         64.2615         72.6522         72.6129         65.3473         64.3301         72.9414         68.9141         70.9189         64.3047         72.9682         76.9694         65.3483         64.2466         64.2364         69.9786         70.982          64.2407         72.9542         61.2437         67.2451         173.246         173.029         167.617         166.802         176.505         179.143         172.781         180.623         177.952         175.926         173.419         173.783         178.372         174.295         174.694         180.684         178.68          175.524         174.571         172.618         178.978         173.456         179.224         177.853         179.142         182.09          183.039         174.987         179.348         173.924         179.246         175.603         179.552         171.541         176.211         176.101         179.991         172.746         170.947         171.539         180.537         171.797         171.691         175.585         181.344         171.26          176.95          170.822         182.133         171.997         184.811         186.938         182.777         175.017         178.488         182.359         183.355         184.35          180.208         186.929         183.923         183.036         181.02          184.004         183.988         179.174         185.291         183.407         183.523         201.381         174.421         171.637         193.727         201.77          195.828         163.06          194.461         190.388         188.845         194.058         195.061         189.724         195.798         192.666         195.588         198.886         191.682         194.211         196.33          199.197         199.121         193.976         196.994         198.838         194.931         201.775         197.619         193.928         198.36          196.71          198.113         194.54
64.1975         64.2082         64.2677         64.2784         72.636          64.1741         64.1865         64.1989         73.0923         64.2442         73.0512         73.0307         76.2567         62.9576         74.1568         76.4767         60.0113         61.0115         63.0117         68.0119         59.8045         63.0359         65.8522         60.876          59.8999         70.5636         91.8413         98.3268         -2.20136        104.896         105.462         114.932         45.0647         92.8542         129.849         0.542194        -15.632         59.4955         63.5153         -72.1545        59.5551         70.7602         75.8322         71.9041         61.9914         59.4759         63.4241         65.3723         66.2603         65.323          75.1871         66.9724         61.5111         69.4614         71.4206         59.3849         71.8565         68.9048         65.335          62.351          64.0168         68.1288         72.2081         69.5584         62.323          61.3058         65.1734         62.1562         64.2543         72.8319         65.2147         73.8415         62.2274         59.1123         61.2564         59.271          61.1461         72.8846         62.1491         72.8587         176.587         59.1534         66.1549         174.536         179.636         169.907         174.092         174.277         175.378         175.016         179.654         178.292         175.999         182.894         172.593         177.522         180.579         174.502         180.11          175.032         175.955         182.881         176.847         182.732         180.2           177.901         175.293         175.253         178.77          175.666         174.727         175.623         176.381         177.963         183.912         182.228         183.035         180.925         182.815         178.706         176.596         177.584         172.28          182.187         183.175         180.973         172.424         178.569         175.212         177.88          171.774         180.042         185.845         178.684         172.265         179.821         179.775         179.061         178.917         175.788         187.691         185.459         177.272         177.086         180.103         181.087         180.071         180.055         186.039         188.155         180.271         179.346         174.09          199.89          172.127         174.809         172.164         172.633         175.101         165.569         194.807         189.171         189.006         188.841         194.039         189.87          192.169         193.828         194.195         196.66          197.805         199.139         200.554         200.41          192.176         193.955         194.139         191.85          197.722         191.595         200.4           194.117         194.182         196.899         199.302         193.115
71.6798         63.1182         63.1409         63.1516         63.0922         63.1046         63.117          71.665          63.771          62.8039         62.8369         62.8699         66.8724         66.8901         64.9079         62.9256         61.9461         61.9435         62.9437         62.9467         63.7224         58.7463         61.9945         59.7939         61.8178         92.0079         97.7197         61.8893         -5.40272        98.8553         105.019         111.279         21.4328         69.105          -9.91561        -27.0898        66.2819         -52.4382        60.3737         63.3936         66.8664         61.3785         58.3984         68.7625         64.4382         59.3864         60.3345         63.2827         66.1978         61.8067         58.8694         59.9321         62.4487         63.239          69.3032         70.8259         71.7712         67.8195         58.2497         58.2657         62.963          63.3295         58.3773         74.5046         71.5839         67.5447         69.8635         70.4662         63.1785         62.1309         65.1912         69.7642         69.7856         68.7868         62.0362         59.0507         61.0574         61.0667         70.7973         70.8007         70.7733         68.7767         61.0661         59.0676         168.196         177.515         173.567         170.752         180.266         171.889         171.527         174.662         173.412         173.838         178.091         173.986         180.539         174.71          182.633         174.037         173.028         176.996         172.503         176.847         181.772         181.537         181.496         176.126         172.436         176.363         173.281         184.732         184.68          181.629         181.578         176.07          172.807         173.751         176.581         184.472         179.201         185.222         176.928         177.949         187.618         173.605         177.409         178.207         180.945         186.613         181.301         182.754         181.556         178.535         174.976         177.648         184.422         178.875         175.546         182.201         186.891         186.749         180.607         181.465         184.322         184.175         184.122         186.274         185.09          180.053         184.17          185.286         209.95          176.618         202.848         178.655         194.745         194.562         194.56          195.967         189.497         189.332         196.483         196.333         198.331         192.199         189.847         195.958         192.269         195.099         191.598         191.428         198.948         192.411         199.3           194.156         192.122         194.995         200.828         191.74          193.415         196.465         194.72          193.597         195.401         199.339
70.5898         62.0283         62.014          62.0247         62.0227         62.0351         70.5627         70.5955         70.8463         70.8257         61.7139         61.7468         61.805          58.8227         60.8404         62.8329         57.8808         66.4176         62.8812         57.8764         61.8816         69.3715         57.9293         59.7119         57.7357         96.1127         93.8246         98.5365         -6.60408        103.105         105.672         56.9211         9.80077         -14.3734        72.9443         75.6887         57.1923         -76.0701        64.2321         -106.419        66.4049         61.2917         59.3089         66.6209         65.3486         57.2968         70.0307         57.7555         66.0256         65.1981         59.8292         62.3235         68.2673         70.2265         61.1358         59.4289         65.6859         57.1483         67.7824         62.2124         62.9093         69.9582         66.3716         65.4509         60.1714         57.0831         62.137          72.7484         63.1027         58.0536         65.0599         65.7236         57.9164         69.6962         61.1017         73.6953         69.6711         57.9761         56.9775         59.979          57.9745         69.6879         60.9774         169.486         174.671         171.857         176.753         170.228         178.124         171.762         174.016         175.038         176.083         176.369         178.264         174.87          173.334         173.331         179.66          174.763         183.506         176.393         180.397         178.244         180.214         179.365         182.087         177.092         178.051         177.939         176.948         179.896         180.347         178.578         181.527         177.193         173.485         173.356         179.206         180.097         180.996         178.669         181.532         176.657         184.351         187.149         174.136         180.03          182.544         186.86          187.149         180.465         184.268         187.107         178.688         188.224         180.063         184.522         180.377         180.232         189.09          181.948         188.806         188.664         188.206         184.506         180.49          180.474         180.877         178.993         184.109         179.225         181.108         181.127         185.145         200.806         198.254         201.252         196.887         192.189         194.99          191.949         195.661         198.649         190.331         195.162         191.236         191.104         195.047         191.727         195.706         198.356         195.845         199.568         196.762         192.202         201.43          202.61          194.454         196.298         195.748         198.495         196.894         194.277         195.625         196.564
69.8807         69.9283         69.9759         70.0235         69.6903         69.4603         69.4931         78.1911         69.5589         77.8585         77.8839         69.6616         69.641          69.7144         67.7877         76.2744         69.3478         75.7919         77.7998         70.3549         69.3382         75.8236         68.2964         72.3034         69.3103         96.2176         94.9295         97.6413         100.353         97.8089         102.09          85.8438         89.5057         91.2502         95.9946         75.7835         78.528          60.3148         74.8398         89.4765         69.2633         68.3353         73.4072         65.4792         68.9753         69.9728         71.9904         64.9678         68.9854         76.395          68.0664         65.1069         68.8234         70.7826         71.7418         76.647          68.9866         75.8944         73.9195         69.7454         68.7936         67.2386         72.3179         77.5161         68.4764         77.4985         75.5064         65.6726         68.6334         76.2761         79.2367         77.2867         68.6142         65.6055         66.6167         65.6179         68.6092         69.6126         75.2829         69.6193         68.5958         65.5991         175.554         66.6059         175.346         174.262         177.513         172.165         177.012         176.873         173.38          178.748         177.257         173.186         172.936         173.044         177.542         176.254         173.523         177.703         177.579         173.25          173.297         177.374         177.391         177.225         178.2           173.802         176.597         172.575         173.095         180.532         176.683         78.99           178.496         174.112         177.055         78.9738         72.9698         75.9657         177.572         216.322         198.152         179.983         177.986         143.645         219.565         197.661         178.411         174.109         118.946         173.572         179.287         177.483         178.214         181.505         181.062         169.148         180.656         169.089         182.378         182.686         177.546         179.312         183.125         181.006         183.815         175.519         183.783         185.752         177.817         185.761         183.765         179.342         184.654         179.673         183.691         180.817         198.882         180.892         193.818         193.653         197.807         192.324         194.477         192.61          190.139         197.969         195.155         190.985         190.406         190.132         195.836         195.078         195.937         190.796         196.413         194.582         190.508         196.049         196.922         195.047         194.159         191.675         197.357         196.34
68.4213         68.8778         68.9254         68.973          68.3448         68.3777         77.0797         77.1085         76.4762         68.666          68.6454         68.6249         70.6043         69.0626         64.1359         77.0322         75.7242         66.2713         69.2737         67.2761         64.2785         72.7588         75.7606         78.7624         76.7642         65.2525         93.0327         67.2664         102.456         99.9121         101.193         110.592         91.1783         88.9228         93.6672         73.8783         68.399          72.6185         62.629          74.0573         73.4849         73.4856         72.2782         72.4773         66.9021         80.5079         72.2988         73.319          72.4017         64.6162         80.4124         63.6972         65.151          78.8401         73.5152         74.5613         72.8474         65.036          74.8975         74.9225         77.4658         78.9221         69.1911         79.3893         66.7107         75.3717         76.3796         74.3875         72.1469         65.5207         69.5633         70.5681         76.2281         69.52           65.5376         65.5225         175.498         65.5271         75.1974         67.5037         65.507          69.5104         63.5137         65.5171         178.212         172.2           178.378         169.962         173.209         179.148         178.007         171.945         176.882         173.204         181.998         181.24          181.856         174.154         176.793         173.518         174.127         173.811         179.858         174.268         180.952         174.15          175.165         174.43          169.906         174.891         170.876         173.216         72.9057         71.9016         75.8976         75.8935         71.8895         71.8854         71.8628         76.8587         200.037         179.868         76.8466         75.8426         124.361         220.7           191.795         73.8536         141.986         114.081         88.1765         68.2718         176.035         179.316         180.872         183.428         181.438         180.908         182.379         177.997         180.212         173.75          180.728         180.316         182.51          181.485         180.321         178.972         179.801         181.806         187.81          183.54          182.389         180.677         188.388         179.714         179.733         178.428         180.67          173.138         196.429         177.976         180.41          180.845         189.004         193.518         190.637         190.18          192.78          198.773         190.623         198.472         196.438         193.066         191.157         191.016         190.875         198.801         194.154         191.08          190.228         194.541         195.855         192.949         202.054         189.934
67.3428         67.8273         67.8749         67.9225         67.2622         67.295          67.3279         67.3607         71.6498         67.6293         67.6087         67.332          71.5602         70.641          63.7143         71.144          66.2173         64.2116         71.6804         74.6884         63.1528         64.1598         64.1667         63.1737         65.1807         88.424          94.1358         75.7048         82.0034         99.2715         104.983         105.695         72.0814         88.5953         94.3398         93.0842         70.3971         75.6165         87.3499         62.9433         65.2594         66.3314         66.4034         66.4754         71.4146         69.8264         69.8239         65.8214         71.2886         78.294          62.571          71.3047         70.7953         70.8413         71.4296         63.0298         70.9795         71.8504         77.8755         68.7014         73.339          62.985          66.0643         62.9875         62.631          73.2449         66.5525         62.5133         73.1114         63.4788         66.4836         65.4511         74.1426         75.1375         72.1324         74.1273         69.4383         64.4082         62.4115         65.4484         174.42          67.4216         173.285         66.4284         175.073         176.657         177.997         177.828         176.328         173.765         173.284         176.223         177.079         174.579         175.312         174.218         175.657         171.882         175.693         173.066         178.291         178.722         179.419         175.816         179.171         182.711         176.91          174.99          168.596         178.943         171.567         171.552         70.8173         75.8132         70.8092         180.785         70.7995         70.7954         73.7914         73.7873         153.583         139.414         74.7752         101.076         82.9072         65.7381         44.569          24.4            182.658         98.3113         64.4066         43.502          178.799         180.239         182.795         172.792         184.141         186.579         178.249         174.935         180.552         179.637         182.45          183.992         184.858         180.693         178.494         176.198         183.855         187.859         181.864         184.213         195.417         182.719         187.91          188.436         207.167         180.243         178.711         172.179         198.476         200.911         183.021         199.063         190.898         190.729         191.559         194.159         190.976         200.779         191.839         199.037         191.538         193.517         193.979         194.116         199.979         191.501         191.948         190.874         198.281         193.595         199.908         197.859         201.75          196.016
66.2643         66.7768         66.8244         66.872          74.857          74.8857         66.2453         74.9432         74.723          66.2904         74.7738         74.7991         77.4949         69.9321         73.9141         74.6292         62.1496         76.6128         70.6899         71.6287         62.088          63.1661         66.1019         73.6421         85.8153         76.6363         93.239          71.64           81.676          106.375         104.087         104.681         92.5235         91.4241         91.0124         94.7568         52.9928         77.1285         61.6252         78.7122         74.3385         67.3295         69.6117         65.6837         67.8439         67.8414         63.8388         72.4018         74.2381         68.8743         69.9148         62.9553         67.5663         62.1125         67.0717         64.0309         69.5346         69.8284         69.8535         62.1349         64.7789         64.8582         64.8862         62.9655         64.5513         70.0081         75.126          61.4336         64.3576         66.3992         61.3672         61.372          63.3768         63.349          72.0469         65.3515         63.3528         66.3194         62.3228         65.3629         61.3295         175.718         61.3362         65.3396         178.943         176.854         170.11          173.694         176.525         175.03          181.482         173.421         172.275         182.698         176.368         180.415         175.971         176.475         175.389         177.614         178.347         174.933         175.979         175.026         176.073         176.272         175.471         174.45          172.287         171.273         180.798         181.584         73.7289         71.7248         69.7208         75.7167         71.7281         175.799         73.72           69.7159         73.7119         71.7078         75.7917         76.6997         196.065         175.16          145.256         118.351         100.446         68.5415         40.6368         14.7321         180.521         176.278         171.01          176.2           181.863         187.502         186.172         180.843         181.892         182.705         181.173         179.986         181.066         185.98          186.816         177.538         181.909         182.413         183.918         181.922         178.742         184.76          178.779         177.797         205.778         174.284         199.715         201.183         198.651         194.486         198.322         182.067         197.109         194.939         189.058         197.601         198.165         199.206         190.872         192.721         201.649         192.34          198.473         198.051         198.072         199.241         191.701         198.094         201.743         193.634         197.248         191.562         195.876         197.123
74.0826         74.1022         74.1217         74.1413         74.0043         73.8031         73.8319         73.8606         73.8894         73.7117         82.4298         73.7624         73.7878         73.4744         73.8774         75.564          73.6087         83.9604         83.6335         69.6326         73.577          73.5788         82.1744         75.5679         73.5697         80.6693         91.1347         92.6001         99.9404         85.7096         111.996         116.462         90.8154         82.5834         79.4493         99.6592         78.1487         77.4621         77.5378         80.807          73.271          76.266          73.2724         73.2731         73.2681         69.1271         73.1472         77.1674         73.1875         75.1929         82.1483         77.2283         73.1661         71.8437         73.2582         77.3043         72.9819         72.8064         74.8315         85.5409         72.8816         77.7018         79.6781         74.009          72.9835         78.6418         68.9363         77.664          72.9521         77.5751         82.5775         73.968          72.9308         68.9665         80.3579         80.6417         72.9512         77.4187         82.4389         77.4592         173.613         176.046         169.479         175.912         175.883         171.798         177.858         179.628         176.222         178.16          174.596         178.035         176.472         176.518         177.641         172.239         176.286         169.553         175.937         176.96          175.387         164.525         165.929         177.087         175.147         171.895         171.653         172.848         173.86          170.339         170.969         169.581         173.919         75.6364         81.3055         71.6283         72.6243         73.6203         70.6486         74.6445         72.6405         75.6364         68.6324         71.6283         0               150.39          125.486         99.5809         72.6763         42.7716         160.977         158.801         176.295         172.026         160.041         175.489         177.369         162.73          157.517         156.303         179.488         153.134         150.739         152.344         181.766         177.284         176.733         182.183         182.95          178.008         175.385         174.761         183.551         183.565         184.609         188.151         187.525         183.563         189.299         192.942         187.374         181.233         184.243         184.678         193.636         169.077         198.155         194.626         194.369         196.072         196.046         193.918         194.971         186.681         189.155         187.129         195.534         191.078         191.387         198.314         195.828         191.349         193.944         188.994         194.572         190.409
73.014          73.0336         73.0531         73.0727         81.4426         81.4603         72.7427         72.7714         72.5992         81.3153         72.6499         72.6753         78.3412         69.3599         81.4323         80.4494         72.4769         80.8921         71.4928         70.5007         78.1087         81.1043         83.0999         79.0955         71.4952         81.0867         87.2441         98.7685         102.05          80.6442         103.612         103.894         86.488          80.59           96.0505         98.3317         76.244          72.5643         78.6332         80.709          81.2613         84.2022         72.2241         70.2248         70.16           73.1802         77.0966         77.1324         76.8347         76.0505         81.9947         76.1112         69.1483         71.7839         70.83           74.876          72.6987         76.4539         83.4561         82.4582         80.6446         71.7734         70.748          70.9281         72.9026         70.9105         83.572          78.4846         80.4957         78.4974         78.4962         70.8904         84.4996         70.9106         74.8393         79.5604         81.3425         69.8902         76.383          82.4033         176.304         173.737         181.17          169.707         173.149         171.095         172.576         177.491         170.934         178.291         179.281         171.071         174.597         170.68          176.69          174.547         177.82          177.045         168.944         171.003         164.797         166.201         178.839         174.009         170.97          169.007         169.045         170.082         168.746         170.24          168.987         170.208         67.5521         168.35          67.544          69.5399         77.0886         69.5319         78.1144         77.1274         67.5691         72.565          67.561          -23.2845        150.525         -61.6227        -78.7917        -99.9608        159.288         19.0017         161.936         158.76          162.584         161.535         164.219         166.17          164.876         158.663         158.695         157.482         165.024         185.265         156.234         175.475         178.25          177.699         184.148         178.597         184.047         176.423         193.209         176.176         190.962         182.498         193.491         188.631         189.579         189.617         188.655         184.617         174.405         196.96          186.6           171.527         175.234         171.706         170.178         170.65          191.98          191.356         193.329         191.529         197.379         188.339         189.677         190.956         189.125         192.233         199.16          189.575         194.487         190.801         191.834         197.429         197.377         191.898
71.7697         71.965          71.9845         72.0041         80.3534         80.3711         71.6535         71.6823         80.2007         71.7364         71.5628         80.2831         76.3105         84.3278         69.7031         75.7479         73.4086         75.8239         75.8781         69.4325         83.0342         75.4153         74.4171         69.4189         72.4207         96.3154         86.3534         96.8779         102.284         101.44          86.598          118.681         77.703          92.4418         97.7231         75.5335         82.3393         83.5588         76.7782         73.9549         73.1743         80.5018         74.0505         67.1765         72.922          78.9527         79.9885         70.9825         75.9527         75.1144         75.0134         73.0187         73.1305         82.3281         81.281          71.2687         71.616          67.6411         75.3734         80.3755         81.5637         76.54           78.5163         70.8472         77.3736         67.8296         69.781          70.8453         69.7469         76.4132         75.4149         70.7629         70.8598         68.8547         69.758          75.2663         69.8394         77.3069         75.3271         69.8241         182.457         174.89          172.069         177.176         171.333         173.844         172.018         171.933         177.537         172.527         175.21          177.255         173.095         172.54          173.793         176.045         172.159         174.506         169.416         171.826         167.473         165.877         175.38          172.231         168.089         173.399         170.436         174.322         168.51          167.631         174.614         176.6           66.4637         68.4597         74.4556         175.929         77.0172         78.1676         79.1805         79.1935         66.4977         68.4936         74.4896         68.4855         -83.9072        98.8506         -121.245        -140.414        28.1365         -2.76822        165.895         160.719         164.495         167.446         163.445         180.995         164.371         163.158         162.873         162.732         164.519         165.124         178.539         182.768         178.664         182.114         183.563         177.012         180.462         182.838         180.214         179.583         183.479         186.523         181.446         186.034         181.577         187.52          185.011         192.049         206.154         182.945         175.449         185.39          203.779         197.251         199.722         192.194         195.666         195.238         188.613         192.587         190.002         198.646         195.971         194.364         194.079         197.006         189.531         194.859         193.658         196.972         189.903         194.095         194.914         196.078
70.6916         70.8964         70.916          70.9355         79.2642         79.282          70.5643         70.5931         70.6218         70.4503         79.1685         79.1959         79.2234         82.2407         68.616          77.6608         69.3404         74.3483         67.3563         73.3642         78.9597         73.3408         70.3426         67.3444         68.3462         93.4247         95.706          99.9872         84.7081         82.9894         103.831         111.79          80.6347         96.1144         93.3957         74.5401         76.4347         82.2852         82.8735         83.093          79.0451         69.9417         67.1274         66.1281         67.8296         70.8497         67.8699         81.9162         78.6498         69.9155         76.095          65.9263         82.2643         73.1588         68.2049         80.2766         74.2864         79.2886         76.2907         68.6085         82.295          75.4591         66.7918         65.7663         80.296          75.3071         76.4102         69.7112         77.3302         74.332          66.7297         74.3354         80.3371         74.3574         76.1902         76.2104         77.2307         69.7784         67.7733         74.2915         176.998         171.431         174.475         167.296         176.113         180.256         171.012         172.086         173.597         173.875         172.649         178.586         176.347         169.038         170.291         173.543         173.779         171.855         176.913         179.158         173.936         179.996         172.534         171.362         169.749         178.07          173.819         175.865         172.8           176.021         179.006         173.264         65.3753         68.3713         81.0404         65.3632         66.3591         69.3551         69.4344         74.1051         65.4263         -68.8536        81.0234         -107.192        -124.361        82.0807         49.176          -182.868        -2.63342        -25.5381        178.708         162.677         162.674         164.625         170.403         168.527         162.478         180.375         178.845         166.227         163.014         182.604         163.224         156.829         189.379         185.529         178.978         184.427         196.338         180.825         191.091         179.006         184.374         192.442         178.387         188.455         187.461         187.047         188.537         188.575         190.442         190.877         188.312         176.785         203.063         197.338         174.435         200.972         195.221         192.646         195.92          191.871         198.416         196.275         194.223         193.993         196.249         193.779         193.705         195.12          197.815         191.143         194.456         198.77          192.422         198.921
78.3569         78.3669         78.3769         78.3869         78.3171         78.1928         78.2105         78.2283         78.246          78.0539         78.0814         78.1088         78.1363         87.7054         85.171          78.0496         78.0669         73.6873         81.1754         78.2296         77.85           76.8808         85.5856         84.5935         77.8676         81.5219         86.5721         95.2398         99.503          103.968         109.434         117.899         77.6413         78.6098         73.5782         74.5467         77.7675         82.0645         84.0263         77.3885         77.4643         76.8779         83.9692         84.0198         77.7006         88.7415         81.4857         88.8274         77.5573         76.6374         86.8385         88.3336         77.2372         90.3484         89.0269         80.2168         77.2209         76.2059         75.208          83.9738         77.2123         82.0844         89.9526         75.3308         77.3071         77.3182         75.3293         84.0483         77.2627         82.0411         74.2524         83.9698         77.2558         79.2761         88.9932         80.1545         77.1748         80.1951         74.2153         178.643         174.434         171.224         172.015         169.805         175.272         175.845         171.847         172.848         175.486         175.167         179.577         177.258         175.304         172.556         170.612         176.782         174.294         174.353         169.273         175.47          174.058         175.23          174.634         173.659         172.442         176.479         171.449         176.257         172.294         167.28          176.535         169.153         171.811         156.88          72.952          78.9649         76.9779         78.9908         73.0037         76.0167         76.9261         78.939          72.952          170.901         165.814         170.212         169.836         167.976         167.756         160.508         160.419         164.636         168.46          169.411         169.754         164.705         168.656         182.035         181.283         185.532         169.508         173.418         165.719         154.389         179.088         180.943         158.01          193.478         181.291         192.656         194.034         183.646         187.785         184.797         184.524         189.118         187.611         180.932         175.392         182.797         185.95          176.999         184.364         183.748         183.121         169.022         182.064         183.156         193.234         193.207         165.309         170.246         193.339         201.801         194.751         154.212         192.443         189.676         195.699         195.722         193.178         197.097         197.245         193.644         193.889         198.966
77.2655         77.2755         77.2854         77.2954         77.0803         77.2422         77.1158         77.1335         85.5842         85.6212         76.9962         85.6954         85.6029         76.9289         85.0858         77.1031         76.5291         76.5833         85.5058         73.6918         82.4781         72.7891         75.7847         79.7803         75.7543         76.7715         87.6852         94.3528         88.9154         100.071         106.43          113.789         73.6479         72.6164         78.5848         72.5533         89.0608         79.081          80.9844         76.2326         74.8907         74.8316         72.1902         85.7073         80.6595         80.7024         72.4466         73.4824         71.7821         74.5982         79.9421         80.7835         74.1022         79.1002         72.1103         73.1144         81.8359         80.8495         76.1112         75.1133         81.0112         83.9937         86.9763         84.9589         82.9415         80.9208         76.2387         75.2498         84.8561         83.9448         87.9526         84.9604         77.0379         80.8952         75.0784         73.0986         72.1189         77.1392         73.1594         79.1797         177.234         176.175         172.043         171.66          176.934         171.397         169.848         171.85          179.72          176.765         171.592         171.857         176.683         171.935         178.085         170.161         171.449         176.649         174.708         174.625         164.657         168.859         178.492         171.896         145.06          152.997         165.874         171.978         144.807         146.743         145.718         168.217         73.8377         158.739         164.254         148.402         71.8895         71.9024         71.9153         76.8418         73.8547         71.8676         75.8806         167.328         167.503         167.884         161.532         160.047         167.692         169.516         170.339         165.858         168.987         164.412         167.363         184.363         174.396         164.052         164.839         163.625         159.018         159.832         163.789         164.394         179.899         162.713         196.307         157.864         196.298         184.684         188.439         186.665         178.02          192.816         185.976         177.502         183.941         185.357         189.772         180.46          180.436         180.95          184.017         185.724         172.502         178.544         175.016         172.149         168.506         170.891         165.557         170.082         205.824         198.775         161.509         192.193         196.417         187.842         192.673         196.542         192.358         198.593         195.003         188.825         193.277         190.092
76.174          76.184          76.1939         76.2039         84.7525         76.0032         76.021          76.0387         84.499          75.8836         84.5731         84.6102         72.8255         75.8429         82.0006         76.018          83.3293         78.4793         87.6553         74.5877         72.642          85.3943         76.6331         76.6886         77.3889         81.3328         87.7982         74.671          79.9219         99.1838         106.543         76.686          75.6545         71.6229         72.5914         73.5598         80.0189         76.7595         78.8353         77.9111         82.3997         83.8262         78.0343         87.9274         71.6082         79.3716         80.0638         76.4433         71.4791         83.7762         79.7603         87.7443         70.9877         70.9918         84.81           84.1397         87.739          72.0121         79.0143         85.78           83.9205         81.9031         86.7588         84.8683         83.8508         72.137          80.8299         79.8353         82.7659         81.8485         78.0735         84.8641         86.7971         87.805          71.0225         74.0427         75.063          170.484         72.1035         171.244         180.467         178.281         178.072         169.862         177.168         175.202         174.082         177.468         172.266         171.925         174.467         172.09          177.876         169.007         172.37          172.819         173.886         170.945         169.294         175.251         176.31          166.505         171.484         169.888         129.523         130.46          124.397         171.403         125.27          173.502         174.623         123.08          70.7493         75.7623         74.7752         122.021         70.7315         70.7445         73.7574         74.7704         166.948         75.7962         70.8092         161.677         169.576         160.706         164.589         165.854         162.65          173.043         165.474         162.385         168.514         162.33          161.971         175.972         176.004         164.66          170.075         156.84          173.648         174.975         173.789         160.464         168.416         197.137         160.567         157.142         190.863         188.693         188.07          193.446         176.156         186.834         186.995         188.838         180.798         186.297         182.17          188.128         180.194         179.902         180.609         181.316         176.197         173.413         172.629         201.153         200.625         176.586         199.886         176.329         203.798         204.749         169.756         200.505         188.6           190.09          193.906         195.723         195.539         190.437         189.248         190.407         191.87          190.075
75.0825         75.0925         75.1025         75.1124         83.6577         83.6733         83.6888         74.944          74.771          83.4509         74.8259         74.8533         86.4309         76.7569         83.4639         80.9328         77.321          84.5331         73.9174         72.9716         79.2946         70.6057         83.3104         73.5969         75.9804         79.4458         92.9112         93.3766         75.7872         105.307         106.773         71.6926         74.6611         78.5284         77.598          86.057          75.6418         76.7176         86.9006         75.9208         74.9966         78.7392         76.8784         75.621          86.5813         70.3325         72.3683         70.6694         71.44           78.52           75.672          75.68           86.6402         74.8833         70.8402         76.8443         80.6421         72.9152         85.6694         79.6831         86.6968         70.1064         77.0827         83.7776         80.7602         70.9404         74.0575         73.9626         85.6756         85.7522         75.9772         84.7678         69.9261         77.0055         72.9666         73.046          172.772         174.152         174.732         173.112         171.519         170.31          177.172         172.891         178.807         171.754         176.294         170.384         176.258         170.509         177.027         178.395         169.409         175.579         177.946         172.93          174.182         172.763         177.59          178.877         165.506         173.34          176.744         177.148         99.9867         104.923         173.791         99.7968         171.909         99.6701         101.607         99.8938         73.6609         70.6739         100.704         101.641         71.6601         173.519         73.686          69.699          73.7119         165.565         161.851         164.365         169.015         166.53          166.028         167.168         169.177         161.471         169.394         162.913         167.042         165.993         170.944         160.922         153.165         159.413         180.109         182.358         174.719         179.254         177.068         164.534         169.695         178.158         165.846         179.272         197.335         188.712         187.088         186.238         183.692         183.885         179.612         192.174         192.017         187.433         183.822         182.73          181.339         183.345         180.351         187.029         182.893         180.109         179.325         179.54          205.186         171.526         183.807         176.577         203.772         197.723         197.673         167.954         192.18          193.181         190.087         190.814         197.72          192.932         190.754         190.576         189.04          188.855
82.7228         82.7317         82.7406         82.7494         82.6874         91.101          82.7185         82.734          82.6252         90.9316         90.9658         91.0001         82.4769         91.0374         82.3779         82.3944         82.4109         84.1575         84.4833         92.1593         82.2661         79.2108         86.946          83.2898         82.2345         108.213         90.3329         97.6919         99.0509         85.8551         88.1829         84.695          81.615          92.1138         89.1075         90.1012         81.9351         85.8969         81.1642         82.1261         82.0879         78.1384         85.7843         78.2396         81.8855         88.4949         77.9714         82.0143         81.7138         79.6979         77.8093         82.6661         81.7775         86.7323         94.7824         87.3536         81.6546         79.5589         89.6032         78.5862         81.5999         79.7219         85.7045         87.5806         81.6696         79.675          89.5958         78.6858         81.648          77.5932         83.6637         86.4773         81.6167         94.489          90.4949         86.5008         171.84          172.18          166.6           165.98          174.32          169.233         170.201         174.153         174.558         170.548         177.549         170.562         174.552         168.598         177.406         174.147         173.788         169.958         177.128         169.897         173.109         166.803         170.162         165.521         171.554         169.134         166.058         168.388         170.743         77.3867         174.985         86.1281         81.1968         186.095         93.3179         78.5133         81.45           77.3867         169.833         152.602         172.863         152.071         154.154         148.236         166.802         173.522         163.673         177.19          167.06          174.19          167.468         165.856         165.998         163.872         164.609         163.44          166.351         163.216         165.348         162.449         174.221         171.678         178.718         180.966         165.228         196.491         160.856         158.669         173.974         171.549         189.249         183.184         187.672         163.75          166.871         189.721         187.711         184.872         169.746         187.193         183.069         187.001         181.574         180.866         183.34          179.296         179.302         186.358         183.315         180.559         180.02          180.917         182.452         179.152         175.299         179.824         180.35          198.696         161.064         194.597         192.548         198.916         194.594         191.793         192.454         189.776         192.834         196.125         193.21          195.025
81.6358         81.6447         81.6535         81.6624         81.4961         81.5116         81.5272         81.6631         89.8277         81.2961         81.3331         81.3702         78.2618         89.9835         81.2948         89.9896         93.7953         81.066          84.1022         86.8788         78.1119         81.1198         85.1277         79.1356         110.326         81.1514         89.4399         82.8534         100.302         95.296          92.2899         115.235         88.932          87.9257         85.9193         89.913          82.8207         85.7355         78.0875         76.7061         76.6061         77.6567         87.7254         84.1629         91.4247         88.4179         91.4111         84.9373         76.5871         76.7121         93.5966         93.5943         90.1095         93.6192         86.2098         84.7565         90.5104         77.4371         83.4507         86.467          81.6265         90.4846         89.4356         85.4678         85.345          77.5622         83.5676         87.4949         81.5417         91.3984         76.4928         92.369          85.3749         85.3807         85.3866         78.5319         169.708         167.087         166.467         165.847         171.454         177.414         178.362         170.798         172.825         170.826         177.828         168.502         170.602         175.876         167.702         171.404         171.15          170.32          174.259         176.428         162.904         166.263         167.4           170.764         169.466         167.98          172.42          168.106         113.419         174.827         167.831         111.431         58.6601         58.2595         184.588         60.4702         152.301         151.688         160.074         169.207         170.723         179.566         175.753         163.714         161.229         173.614         176.215         161.035         164.145         161.41          168.676         174.161         159.168         159.905         161.642         162.473         162.117         163.249         173.025         158.482         152.643         157.809         174.851         161.388         182.429         173.242         179.056         173.87          198.006         171.259         192.591         192.81          159.829         191.732         185.93          184.712         193.911         167.629         190.232         178.264         180.578         176.316         180.289         184.473         179.282         180.288         180.294         180.52          184.544         183.759         179.975         179.191         177.585         174.544         175.07          177.595         181.121         201.309         162.676         196.21          166.26          194.184         196.382         158.576         193.086         191.224         188.188         193.152         197.391         190.708
80.5487         80.5576         80.5665         80.5753         80.4292         80.4447         80.4603         80.5921         80.1894         88.7922         80.2635         88.8607         76.3376         88.9004         87.2117         80.2282         82.2447         75.9745         84.0107         84.993          88.7472         88.8235         92.7639         78.0446         110.433         107.427         94.5469         79.7624         102.265         94.403          88.3969         109.342         83.2387         84.7375         86.7312         79.9986         92.5501         75.6681         80.0108         90.6201         90.1466         80.985          77.6303         87.2974         92.3477         78.7744         81.3745         75.4174         77.6149         91.4721         75.5831         90.4582         90.0159         85.066          79.6127         75.6434         84.3886         84.3741         84.3596         90.1731         87.3803         85.3718         78.4788         86.3549         78.4137         82.4191         84.2624         86.2743         75.3688         86.292          75.3845         81.3923         77.4001         82.4079         78.4157         86.2842         174.575         170.955         169.335         173.715         169.634         171.098         175.038         169.231         171.103         179.105         173.106         176.772         170.88          177.155         171.065         178.322         170.513         174.578         171.852         173.505         166.364         171.722         169.89          166.439         170.622         165.825         173.879         176.082         126.721         129.725         32.2501         32.1868         175.802         126.831         175.987         176.08          176.173         32.6257         33.5624         182.333         172.582         155.79          156.872         181.128         161.502         167.591         177.443         165.462         161.353         167.618         164.884         171.652         167.201         160.939         164.676         162.507         183.894         177.026         160.483         159.547         154.694         157.298         175.984         160.795         176.138         172.952         169.766         167.579         197.509         196.084         189.585         193.52          188.15          195.14          184.791         183.781         176.512         178.299         180.46          172.462         181.933         181.713         178.409         184.578         182.372         187.28          183.675         183.292         180.499         182.714         182.363         184.146         175.79          174.315         182.413         175.366         176.892         172.842         172.793         166.743         196.773         197.796         195.819         191.849         192.267         188.252         189.949         188.18          196.124         191.91
79.4617         79.4705         79.4794         79.4883         87.8808         79.3779         79.3934         79.5211         79.1197         87.7226         87.7568         87.7911         75.2679         87.8173         87.8203         79.1451         80.8468         91.8543         91.8821         90.9099         74.9298         87.6645         88.6729         87.6813         110.54          107.534         90.6538         101.522         102.372         96.5099         88.5038         108.449         80.0506         87.5494         83.5198         85.5368         85.5072         80.9723         74.5155         81.8959         76.4521         74.5027         79.5533         88.2204         85.2706         84.368          87.3612         90.3544         83.3476         76.4859         79.3018         88.3408         76.2508         74.2815         77.4996         90.4933         74.1798         79.1935         83.2379         81.2208         90.2674         75.3834         79.1996         90.2421         80.3074         78.3366         83.2574         79.3235         77.2605         75.2683         81.2761         74.284          79.2918         74.2996         173.683         79.3153         168.443         173.823         167.203         169.521         171.513         171.278         170.685         172.159         169.655         170.754         171.385         176.06          171.388         173.302         169.708         170.684         169.898         170.068         170.237         175.407         164.823         173.966         167.54          168.899         168.933         168.747         169.436         173.541         17.8401         13.7768         167.522         147.036         147.041         13.4985         18.4351         148.319         176.38          14.2452         174.346         165.18          152.021         180.957         177.472         156.814         158.082         158.018         165.465         160.889         165.336         161.826         166.092         161.132         162.805         161.972         166.628         162.54          166.184         165.484         164.517         163.549         149.101         157.706         155.146         160.202         169.848         170.662         163.078         164.289         203.578         194.154         156.254         186.229         195.349         191.87          189.86          173.591         191.31          191.471         193.632         193.792         184.137         180.069         185.057         180.934         183.266         186.83          179.278         179.284         177.454         181.67          183.885         182.101         173.561         177.087         174.612         175.138         176.663         172.614         171.564         171.515         202.561         205.409         203.432         199.455         193.448         196.412         188.244         188.341         191.603         194.438
87.0711         87.096          87.1209         87.1458         86.9714         86.8336         87.0107         87.0304         86.8926         95.7277         86.6871         86.7214         86.7556         90.7587         86.7372         86.7403         86.7434         95.5755         89.5765         88.8268         86.6321         98.7376         85.5819         84.5902         86.5986         107.641         105.635         76.5803         98.623          162.946         94.1089         115.482         86.3675         82.3612         53.2868         82.3486         86.3928         98.8673         90.3918         90.3913         86.3947         90.0428         86.0931         82.5455         86.1936         89.2412         82.2344         82.2276         86.2208         95.6425         94.6516         89.2141         86.2298         90.28           90.3301         82.3802         86.0292         90.4124         96.1            84.1016         86.0871         85.1462         90.4585         93.9701         86.1209         91.9159         84.0497         84.1564         86.0734         85.0793         97.6767         84.0441         86.0499         91.7823         84.0617         176.695         172.369         170.654         173.327         173.001         173.675         168.309         176.297         177.554         173.835         175.935         173.034         173.133         173.438         167.515         174.789         177.262         172.339         166.548         174.933         177.229         171.151         98.6546         92.5904         98.5262         169.717         90.6754         93.3335         92.547          171.36          98.4964         92.5101         98.5237         171.343         192.776         193.731         200.109         170.972         157.266         171.745         219.775         165.426         177.847         181.655         159.674         173.095         177.543         170.296         174.897         170.692         181.22          181.156         187.092         169.167         160.006         160.743         162.48          166.217         182.075         171.579         161.614         173.689         157.031         211.401         213.101         163.599         165.121         182.347         208.476         187.135         187.591         247.689         183.806         187.396         121.132         75.2801         32.4279         178.912         174.228         178.545         173.999         181.645         186.481         177.121         186.957         182.694         179.837         177.712         176.51          183.347         186.526         185.273         182.885         182.631         184.918         179.314         182.923         181.265         175.542         183.129         184.64          178.098         199.027         170.975         193.583         192.343         190.38          191.235         189.09          192.486         187.44
85.9888         86.0137         86.0387         86.0636         94.3503         85.9256         85.9453         85.965          94.6209         85.5354         85.5696         85.6039         94.5781         91.6347         85.6378         85.6409         95.4395         84.6717         94.1935         87.7274         83.5255         87.5498         81.5422         94.8167         108.744         106.738         79.5468         98.8146         89.2046         143.758         94.2058         88.3362         81.1794         50.831          31.0992         1.36734         98.3282         89.7881         94.8419         88.3159         92.8753         97.8957         83.416          81.4662         97.5414         81.1749         82.1681         88.0641         93.6852         97.6943         93.7034         89.6057         97.6148         81.225          83.2751         89.565          83.0862         92.3535         84.0572         86.0428         81.0547         84.0462         88.0378         85.0293         93.9076         93.9029         83.0446         80.9451         85.9393         83.9628         86.9687         84.9745         176.675         93.6952         169.022         80.9804         172.147         170.821         168.042         173.881         176.841         175.801         169.492         168.471         170.03          169.435         168.969         170.634         176.733         166.181         167.771         172.557         167.473         166.568         169.548         170.452         92.5858         96.5216         165.459         92.3932         90.329          95.2647         94.5372         170.944         166.006         187.634         187.638         193.642         187.646         170.074         167.088         168.101         200.175         162.945         156.332         164.719         163.105         180.276         178.334         157.353         178.089         169.125         171.726         172.326         165.908         169.29          177.424         179.36          179.014         163.944         183.831         162.419         178.332         164.288         174.597         173.729         216.351         146.381         152.903         159.583         153.948         199.043         158.993         189.364         187.256         250.545         185.04          191.53          120.988         175.723         34.284          178.667         179.788         175.104         173.82          181.738         180.885         177.953         172.31          179.154         182.16          187.996         180.909         186.434         185.233         183.06          180.865         180.044         179.827         180.169         184.511         181.784         170.655         178.266         172.238         175.03          200.985         172.261         195.693         172.853         194.747         188.607         186.462         193.317         192.984         189.82
84.9065         84.9315         84.9564         84.9813         84.6688         84.6885         84.7082         84.8996         84.3837         93.4927         84.4521         93.4713         80.5206         92.5237         84.5268         93.3189         84.3395         89.3766         87.6001         93.4499         91.5989         92.6583         90.7177         85.511          84.5193         102.651         78.5071         99.8228         80.0165         83.0102         89.8045         86.7984         79.9913         81.1444         79.9786         85.9723         80.1255         93.2484         80.2371         88.2366         82.2361         83.8247         88.3367         87.9252         95.4751         79.9687         93.547          84.0949         81.0881         84.0859         94.637          88.0814         80.1198         81.6353         86.6854         84.2703         89.2463         92.2947         90.3431         86.9839         83.9547         92.8694         84.9526         84.9294         90.7206         87.8048         90.7113         90.7771         88.4319         92.8076         90.8428         83.858          86.8756         87.8815         80.8874         79.8933         171.314         171.044         169.042         170.391         172.711         176.662         175.928         171.888         172.631         176.325         172.83          178.524         171.684         174.865         174.578         175.508         169.78          168.388         172.377         172.152         171.765         173.124         94.3244         166.454         91.5916         91.5274         171.814         93.0033         212.933         208.937         88.3621         214.945         213.949         140.431         208.135         160.678         164.683         156.625         169.016         155.398         175.349         162.867         171.788         151.033         167.954         167.315         173.155         175.17          180.819         181.755         164.88          165.32          155.145         158.883         178.769         157.357         179.586         179.952         159.359         169.289         139.208         166.355         166.055         181.601         155.298         154.82          183.516         155.866         257.401         214.549         165.696         121.844         85.9922         38.14           -6.7121         189.897         179.664         182.98          168.695         166.715         180.175         178.54          181.614         176.245         182.319         188.156         186.992         178.6           181.392         186.026         180.024         185.203         180.756         178.098         183.44          176.781         176.404         171.171         171.963         172.754         176.546         200.482         198.096         192.359         193.979         193.834         192.689         186.544         189.778         190
83.8243         83.8492         83.8741         83.8991         92.2052         83.6159         83.6356         83.8342         83.2662         92.3752         92.3645         92.3538         84.4328         83.4358         83.4389         83.442          82.2489         89.2772         84.3045         92.3504         83.3601         83.4546         87.678          81.4713         103.617         103.747         86.0576         100.92          111.115         98.9075         93.3995         91.8953         79.8031         -0.54422        78.7905         -41.0079        86.9919         79.9914         93.1687         92.7372         81.1569         87.8116         93.832          92.7185         78.8664         87.4447         87.8109         83.0286         89.4684         95.5616         87.5707         92.5798         86.4634         87.4882         78.5637         83.2153         78.9685         84.9541         79.9396         95.3328         88.819          89.7694         91.7198         84.8294         78.821          92.6699         78.8447         85.7121         88.6559         89.6911         91.7263         91.4505         176.006         92.5209         78.8002         84.8061         174.481         176.045         174.718         175.392         175.84          170.541         174.817         178.055         172.161         176.026         170.62          171.719         169.423         170.599         176.456         167.027         168.087         175.302         164.851         169.776         95.3198         173.019         176.79          166.761         91.063          86.9987         86.9345         89.8703         111.72          119.734         231.244         228.248         152.799         114.789         182.641         157.078         192.974         193.641         155.691         158.078         154.464         152.547         173.218         148.712         163.427         162.028         164.629         177.599         161.443         164.824         164.593         167.974         153.084         176.299         172.708         155.296         168.364         158.165         160.297         150.43          136.557         141.08          178.25          181.773         187.85          152.17          187.723         192.525         183.511         188.446         184.291         185.316         42.9961         189.724         -50.7082        178.418         185.539         183.856         172.571         171.59          181.381         187.119         183.856         184.594         177.707         184.315         182.152         179.753         180.813         178.537         186.523         180.508         180.529         180.027         176.369         184.71          179.052         170.895         171.687         172.479         199.44          169.709         196.323         190.265         189.207         189.062         186.916         188.771         188.84          188.675
